121.32   120.98   120.65   120.32   119.98   119.65   119.32   118.98   118.65   118.32   117.98   117.65   117.32   116.98   116.65   116.32   115.98   115.65   115.32   114.98   114.65   114.32   113.98   113.65   113.32   112.98   112.65   110.98   109.32   107.65   105.15   102.65   100.98    99.32    97.65    97.65    99.32   100.98   102.65   105.15   107.65   109.32   110.98   112.65   112.98   113.32   113.65   113.98   114.32   114.65   114.98   115.32   115.65   115.98   116.32   116.65   116.98   117.32   117.65   117.98   118.32   118.65   118.98   119.32   119.65   119.98   120.32   120.65   120.98   121.32
121.27   120.93   120.60   120.27   119.93   119.60   119.27   118.93   118.60   118.27   117.93   117.60   117.27   116.93   116.60   116.27   115.93   115.60   115.27   114.93   114.60   114.27   113.93   113.60   113.27   112.93   112.60   110.93   109.27   107.60   105.10   102.60   100.93    99.27    97.60    97.60    99.27   100.93   102.60   105.10   107.60   109.27   110.93   112.60   112.93   113.27   113.60   113.93   114.27   114.60   114.93   115.27   115.60   115.93   116.27   116.60   116.93   117.27   117.60   117.93   118.27   118.60   118.93   119.27   119.60   119.93   120.27   120.60   120.93   121.27
121.22   120.88   120.55   120.22   119.88   119.55   119.22   118.88   118.55   118.22   117.88   117.55   117.22   116.88   116.55   116.22   115.88   115.55   115.22   114.88   114.55   114.22   113.88   113.55   113.22   112.88   112.55   110.88   109.22   107.55   105.05   102.55   100.88    99.22    97.55    97.55    99.22   100.88   102.55   105.05   107.55   109.22   110.88   112.55   112.88   113.22   113.55   113.88   114.22   114.55   114.88   115.22   115.55   115.88   116.22   116.55   116.88   117.22   117.55   117.88   118.22   118.55   118.88   119.22   119.55   119.88   120.22   120.55   120.88   121.22
121.17   120.83   120.50   120.17   119.83   119.50   119.17   118.83   118.50   118.17   117.83   117.50   117.17   116.83   116.50   116.17   115.83   115.50   115.17   114.83   114.50   114.17   113.83   113.50   113.17   112.83   112.50   110.83   109.17   107.50   105.00   102.50   100.83    99.17    97.50    97.50    99.17   100.83   102.50   105.00   107.50   109.17   110.83   112.50   112.83   113.17   113.50   113.83   114.17   114.50   114.83   115.17   115.50   115.83   116.17   116.50   116.83   117.17   117.50   117.83   118.17   118.50   118.83   119.17   119.50   119.83   120.17   120.50   120.83   121.17
121.12   120.78   120.45   120.12   119.78   119.45   119.12   118.78   118.45   118.12   117.78   117.45   117.12   116.78   116.45   116.12   115.78   115.45   115.12   114.78   114.45   114.12   113.78   113.45   113.12   112.78   112.45   110.78   109.12   107.45   104.95   102.45   100.78    99.12    97.45    97.45    99.12   100.78   102.45   104.95   107.45   109.12   110.78   112.45   112.78   113.12   113.45   113.78   114.12   114.45   114.78   115.12   115.45   115.78   116.12   116.45   116.78   117.12   117.45   117.78   118.12   118.45   118.78   119.12   119.45   119.78   120.12   120.45   120.78   121.12
121.07   120.73   120.40   120.07   119.73   119.40   119.07   118.73   118.40   118.07   117.73   117.40   117.07   116.73   116.40   116.07   115.73   115.40   115.07   114.73   114.40   114.07   113.73   113.40   113.07   112.73   112.40   110.73   109.07   107.40   104.90   102.40   100.73    99.07    97.40    97.40    99.07   100.73   102.40   104.90   107.40   109.07   110.73   112.40   112.73   113.07   113.40   113.73   114.07   114.40   114.73   115.07   115.40   115.73   116.07   116.40   116.73   117.07   117.40   117.73   118.07   118.40   118.73   119.07   119.40   119.73   120.07   120.40   120.73   121.07
121.02   120.68   120.35   120.02   119.68   119.35   119.02   118.68   118.35   118.02   117.68   117.35   117.02   116.68   116.35   116.02   115.68   115.35   115.02   114.68   114.35   114.02   113.68   113.35   113.02   112.68   112.35   110.68   109.02   107.35   104.85   102.35   100.68    99.02    97.35    97.35    99.02   100.68   102.35   104.85   107.35   109.02   110.68   112.35   112.68   113.02   113.35   113.68   114.02   114.35   114.68   115.02   115.35   115.68   116.02   116.35   116.68   117.02   117.35   117.68   118.02   118.35   118.68   119.02   119.35   119.68   120.02   120.35   120.68   121.02
120.97   120.63   120.30   119.97   119.63   119.30   118.97   118.63   118.30   117.97   117.63   117.30   116.97   116.63   116.30   115.97   115.63   115.30   114.97   114.63   114.30   113.97   113.63   113.30   112.97   112.63   112.30   110.63   108.97   107.30   104.80   102.30   100.63    98.97    97.30    97.30    98.97   100.63   102.30   104.80   107.30   108.97   110.63   112.30   112.63   112.97   113.30   113.63   113.97   114.30   114.63   114.97   115.30   115.63   115.97   116.30   116.63   116.97   117.30   117.63   117.97   118.30   118.63   118.97   119.30   119.63   119.97   120.30   120.63   120.97
120.92   120.58   120.25   119.92   119.58   119.25   118.92   118.58   118.25   117.92   117.58   117.25   116.92   116.58   116.25   115.92   115.58   115.25   114.92   114.58   114.25   113.92   113.58   113.25   112.92   112.58   112.25   110.58   108.92   107.25   104.75   102.25   100.58    98.92    97.25    97.25    98.92   100.58   102.25   104.75   107.25   108.92   110.58   112.25   112.58   112.92   113.25   113.58   113.92   114.25   114.58   114.92   115.25   115.58   115.92   116.25   116.58   116.92   117.25   117.58   117.92   118.25   118.58   118.92   119.25   119.58   119.92   120.25   120.58   120.92
120.87   120.53   120.20   119.87   119.53   119.20   118.87   118.53   118.20   117.87   117.53   117.20   116.87   116.53   116.20   115.87   115.53   115.20   114.87   114.53   114.20   113.87   113.53   113.20   112.87   112.53   112.20   110.53   108.87   107.20   104.70   102.20   100.53    98.87    97.20    97.20    98.87   100.53   102.20   104.70   107.20   108.87   110.53   112.20   112.53   112.87   113.20   113.53   113.87   114.20   114.53   114.87   115.20   115.53   115.87   116.20   116.53   116.87   117.20   117.53   117.87   118.20   118.53   118.87   119.20   119.53   119.87   120.20   120.53   120.87
120.82   120.48   120.15   119.82   119.48   119.15   118.82   118.48   118.15   117.82   117.48   117.15   116.82   116.48   116.15   115.82   115.48   115.15   114.82   114.48   114.15   113.82   113.48   113.15   112.82   112.48   112.15   110.48   108.82   107.15   104.65   102.15   100.48    98.82    97.15    97.15    98.82   100.48   102.15   104.65   107.15   108.82   110.48   112.15   112.48   112.82   113.15   113.48   113.82   114.15   114.48   114.82   115.15   115.48   115.82   116.15   116.48   116.82   117.15   117.48   117.82   118.15   118.48   118.82   119.15   119.48   119.82   120.15   120.48   120.82
120.77   120.43   120.10   119.77   119.43   119.10   118.77   118.43   118.10   117.77   117.43   117.10   116.77   116.43   116.10   115.77   115.43   115.10   114.77   114.43   114.10   113.77   113.43   113.10   112.77   112.43   112.10   110.43   108.77   107.10   104.60   102.10   100.43    98.77    97.10    97.10    98.77   100.43   102.10   104.60   107.10   108.77   110.43   112.10   112.43   112.77   113.10   113.43   113.77   114.10   114.43   114.77   115.10   115.43   115.77   116.10   116.43   116.77   117.10   117.43   117.77   118.10   118.43   118.77   119.10   119.43   119.77   120.10   120.43   120.77
120.72   120.38   120.05   119.72   119.38   119.05   118.72   118.38   118.05   117.72   117.38   117.05   116.72   116.38   116.05   115.72   115.38   115.05   114.72   114.38   114.05   113.72   113.38   113.05   112.72   112.38   112.05   110.38   108.72   107.05   104.55   102.05   100.38    98.72    97.05    97.05    98.72   100.38   102.05   104.55   107.05   108.72   110.38   112.05   112.38   112.72   113.05   113.38   113.72   114.05   114.38   114.72   115.05   115.38   115.72   116.05   116.38   116.72   117.05   117.38   117.72   118.05   118.38   118.72   119.05   119.38   119.72   120.05   120.38   120.72
120.67   120.33   120.00   119.67   119.33   119.00   118.67   118.33   118.00   117.67   117.33   117.00   116.67   116.33   116.00   115.67   115.33   115.00   114.67   114.33   114.00   113.67   113.33   113.00   112.67   112.33   112.00   110.33   108.67   107.00   104.50   102.00   100.33    98.67    97.00    97.00    98.67   100.33   102.00   104.50   107.00   108.67   110.33   112.00   112.33   112.67   113.00   113.33   113.67   114.00   114.33   114.67   115.00   115.33   115.67   116.00   116.33   116.67   117.00   117.33   117.67   118.00   118.33   118.67   119.00   119.33   119.67   120.00   120.33   120.67
120.62   120.28   119.95   119.62   119.28   118.95   118.62   118.28   117.95   117.62   117.28   116.95   116.62   116.28   115.95   115.62   115.28   114.95   114.62   114.28   113.95   113.62   113.28   112.95   112.62   112.28   111.95   110.28   108.62   106.95   104.45   101.95   100.28    98.62    96.95    96.95    98.62   100.28   101.95   104.45   106.95   108.62   110.28   111.95   112.28   112.62   112.95   113.28   113.62   113.95   114.28   114.62   114.95   115.28   115.62   115.95   116.28   116.62   116.95   117.28   117.62   117.95   118.28   118.62   118.95   119.28   119.62   119.95   120.28   120.62
120.57   120.23   119.90   119.57   119.23   118.90   118.57   118.23   117.90   117.57   117.23   116.90   116.57   116.23   115.90   115.57   115.23   114.90   114.57   114.23   113.90   113.57   113.23   112.90   112.57   112.23   111.90   110.23   108.57   106.90   104.40   101.90   100.23    98.57    96.90    96.90    98.57   100.23   101.90   104.40   106.90   108.57   110.23   111.90   112.23   112.57   112.90   113.23   113.57   113.90   114.23   114.57   114.90   115.23   115.57   115.90   116.23   116.57   116.90   117.23   117.57   117.90   118.23   118.57   118.90   119.23   119.57   119.90   120.23   120.57
120.52   120.18   119.85   119.52   119.18   118.85   118.52   118.18   117.85   117.52   117.18   116.85   116.52   116.18   115.85   115.52   115.18   114.85   114.52   114.18   113.85   113.52   113.18   112.85   112.52   112.18   111.85   110.18   108.52   106.85   104.35   101.85   100.18    98.52    96.85    96.85    98.52   100.18   101.85   104.35   106.85   108.52   110.18   111.85   112.18   112.52   112.85   113.18   113.52   113.85   114.18   114.52   114.85   115.18   115.52   115.85   116.18   116.52   116.85   117.18   117.52   117.85   118.18   118.52   118.85   119.18   119.52   119.85   120.18   120.52
120.47   120.13   119.80   119.47   119.13   118.80   118.47   118.13   117.80   117.47   117.13   116.80   116.47   116.13   115.80   115.47   115.13   114.80   114.47   114.13   113.80   113.47   113.13   112.80   112.47   112.13   111.80   110.13   108.47   106.80   104.30   101.80   100.13    98.47    96.80    96.80    98.47   100.13   101.80   104.30   106.80   108.47   110.13   111.80   112.13   112.47   112.80   113.13   113.47   113.80   114.13   114.47   114.80   115.13   115.47   115.80   116.13   116.47   116.80   117.13   117.47   117.80   118.13   118.47   118.80   119.13   119.47   119.80   120.13   120.47
120.42   120.08   119.75   119.42   119.08   118.75   118.42   118.08   117.75   117.42   117.08   116.75   116.42   116.08   115.75   115.42   115.08   114.75   114.42   114.08   113.75   113.42   113.08   112.75   112.42   112.08   111.75   110.08   108.42   106.75   104.25   101.75   100.08    98.42    96.75    96.75    98.42   100.08   101.75   104.25   106.75   108.42   110.08   111.75   112.08   112.42   112.75   113.08   113.42   113.75   114.08   114.42   114.75   115.08   115.42   115.75   116.08   116.42   116.75   117.08   117.42   117.75   118.08   118.42   118.75   119.08   119.42   119.75   120.08   120.42
120.37   120.03   119.70   119.37   119.03   118.70   118.37   118.03   117.70   117.37   117.03   116.70   116.37   116.03   115.70   115.37   115.03   114.70   114.37   114.03   113.70   113.37   113.03   112.70   112.37   112.03   111.70   110.03   108.37   106.70   104.20   101.70   100.03    98.37    96.70    96.70    98.37   100.03   101.70   104.20   106.70   108.37   110.03   111.70   112.03   112.37   112.70   113.03   113.37   113.70   114.03   114.37   114.70   115.03   115.37   115.70   116.03   116.37   116.70   117.03   117.37   117.70   118.03   118.37   118.70   119.03   119.37   119.70   120.03   120.37
120.32   119.98   119.65   119.32   118.98   118.65   118.32   117.98   117.65   117.32   116.98   116.65   116.32   115.98   115.65   115.32   114.98   114.65   114.32   113.98   113.65   113.32   112.98   112.65   112.32   111.98   111.65   109.98   108.32   106.65   104.15   101.65    99.98    98.32    96.65    96.65    98.32    99.98   101.65   104.15   106.65   108.32   109.98   111.65   111.98   112.32   112.65   112.98   113.32   113.65   113.98   114.32   114.65   114.98   115.32   115.65   115.98   116.32   116.65   116.98   117.32   117.65   117.98   118.32   118.65   118.98   119.32   119.65   119.98   120.32
120.27   119.93   119.60   119.27   118.93   118.60   118.27   117.93   117.60   117.27   116.93   116.60   116.27   115.93   115.60   115.27   114.93   114.60   114.27   113.93   113.60   113.27   112.93   112.60   112.27   111.93   111.60   109.93   108.27   106.60   104.10   101.60    99.93    98.27    96.60    96.60    98.27    99.93   101.60   104.10   106.60   108.27   109.93   111.60   111.93   112.27   112.60   112.93   113.27   113.60   113.93   114.27   114.60   114.93   115.27   115.60   115.93   116.27   116.60   116.93   117.27   117.60   117.93   118.27   118.60   118.93   119.27   119.60   119.93   120.27
120.22   119.88   119.55   119.22   118.88   118.55   118.22   117.88   117.55   117.22   116.88   116.55   116.22   115.88   115.55   115.22   114.88   114.55   114.22   113.88   113.55   113.22   112.88   112.55   112.22   111.88   111.55   109.88   108.22   106.55   104.05   101.55    99.88    98.22    96.55    96.55    98.22    99.88   101.55   104.05   106.55   108.22   109.88   111.55   111.88   112.22   112.55   112.88   113.22   113.55   113.88   114.22   114.55   114.88   115.22   115.55   115.88   116.22   116.55   116.88   117.22   117.55   117.88   118.22   118.55   118.88   119.22   119.55   119.88   120.22
120.17   119.83   119.50   119.17   118.83   118.50   118.17   117.83   117.50   117.17   116.83   116.50   116.17   115.83   115.50   115.17   114.83   114.50   114.17   113.83   113.50   113.17   112.83   112.50   112.17   111.83   111.50   109.83   108.17   106.50   104.00   101.50    99.83    98.17    96.50    96.50    98.17    99.83   101.50   104.00   106.50   108.17   109.83   111.50   111.83   112.17   112.50   112.83   113.17   113.50   113.83   114.17   114.50   114.83   115.17   115.50   115.83   116.17   116.50   116.83   117.17   117.50   117.83   118.17   118.50   118.83   119.17   119.50   119.83   120.17
120.12   119.78   119.45   119.12   118.78   118.45   118.12   117.78   117.45   117.12   116.78   116.45   116.12   115.78   115.45   115.12   114.78   114.45   114.12   113.78   113.45   113.12   112.78   112.45   112.12   111.78   111.45   109.78   108.12   106.45   103.95   101.45    99.78    98.12    96.45    96.45    98.12    99.78   101.45   103.95   106.45   108.12   109.78   111.45   111.78   112.12   112.45   112.78   113.12   113.45   113.78   114.12   114.45   114.78   115.12   115.45   115.78   116.12   116.45   116.78   117.12   117.45   117.78   118.12   118.45   118.78   119.12   119.45   119.78   120.12
120.07   119.73   119.40   119.07   118.73   118.40   118.07   117.73   117.40   117.07   116.73   116.40   116.07   115.73   115.40   115.07   114.73   114.40   114.07   113.73   113.40   113.07   112.73   112.40   112.07   111.73   111.40   109.73   108.07   106.40   103.90   101.40    99.73    98.07    96.40    96.40    98.07    99.73   101.40   103.90   106.40   108.07   109.73   111.40   111.73   112.07   112.40   112.73   113.07   113.40   113.73   114.07   114.40   114.73   115.07   115.40   115.73   116.07   116.40   116.73   117.07   117.40   117.73   118.07   118.40   118.73   119.07   119.40   119.73   120.07
120.02   119.68   119.35   119.02   118.68   118.35   118.02   117.68   117.35   117.02   116.68   116.35   116.02   115.68   115.35   115.02   114.68   114.35   114.02   113.68   113.35   113.02   112.68   112.35   112.02   111.68   111.35   109.68   108.02   106.35   103.85   101.35    99.68    98.02    96.35    96.35    98.02    99.68   101.35   103.85   106.35   108.02   109.68   111.35   111.68   112.02   112.35   112.68   113.02   113.35   113.68   114.02   114.35   114.68   115.02   115.35   115.68   116.02   116.35   116.68   117.02   117.35   117.68   118.02   118.35   118.68   119.02   119.35   119.68   120.02
119.97   119.63   119.30   118.97   118.63   118.30   117.97   117.63   117.30   116.97   116.63   116.30   115.97   115.63   115.30   114.97   114.63   114.30   113.97   113.63   113.30   112.97   112.63   112.30   111.97   111.63   111.30   109.63   107.97   106.30   103.80   101.30    99.63    97.97    96.30    96.30    97.97    99.63   101.30   103.80   106.30   107.97   109.63   111.30   111.63   111.97   112.30   112.63   112.97   113.30   113.63   113.97   114.30   114.63   114.97   115.30   115.63   115.97   116.30   116.63   116.97   117.30   117.63   117.97   118.30   118.63   118.97   119.30   119.63   119.97
119.92   119.58   119.25   118.92   118.58   118.25   117.92   117.58   117.25   116.92   116.58   116.25   115.92   115.58   115.25   114.92   114.58   114.25   113.92   113.58   113.25   112.92   112.58   112.25   111.92   111.58   111.25   109.58   107.92   106.25   103.75   101.25    99.58    97.92    96.25    96.25    97.92    99.58   101.25   103.75   106.25   107.92   109.58   111.25   111.58   111.92   112.25   112.58   112.92   113.25   113.58   113.92   114.25   114.58   114.92   115.25   115.58   115.92   116.25   116.58   116.92   117.25   117.58   117.92   118.25   118.58   118.92   119.25   119.58   119.92
119.87   119.53   119.20   118.87   118.53   118.20   117.87   117.53   117.20   116.87   116.53   116.20   115.87   115.53   115.20   114.87   114.53   114.20   113.87   113.53   113.20   112.87   112.53   112.20   111.87   111.53   111.20   109.53   107.87   106.20   103.70   101.20    99.53    97.87    96.20    96.20    97.87    99.53   101.20   103.70   106.20   107.87   109.53   111.20   111.53   111.87   112.20   112.53   112.87   113.20   113.53   113.87   114.20   114.53   114.87   115.20   115.53   115.87   116.20   116.53   116.87   117.20   117.53   117.87   118.20   118.53   118.87   119.20   119.53   119.87
119.82   119.48   119.15   118.82   118.48   118.15   117.82   117.48   117.15   116.82   116.48   116.15   115.82   115.48   115.15   114.82   114.48   114.15   113.82   113.48   113.15   112.82   112.48   112.15   111.82   111.48   111.15   109.48   107.82   106.15   103.65   101.15    99.48    97.82    96.15    96.15    97.82    99.48   101.15   103.65   106.15   107.82   109.48   111.15   111.48   111.82   112.15   112.48   112.82   113.15   113.48   113.82   114.15   114.48   114.82   115.15   115.48   115.82   116.15   116.48   116.82   117.15   117.48   117.82   118.15   118.48   118.82   119.15   119.48   119.82
119.77   119.43   119.10   118.77   118.43   118.10   117.77   117.43   117.10   116.77   116.43   116.10   115.77   115.43   115.10   114.77   114.43   114.10   113.77   113.43   113.10   112.77   112.43   112.10   111.77   111.43   111.10   109.43   107.77   106.10   103.60   101.10    99.43    97.77    96.10    96.10    97.77    99.43   101.10   103.60   106.10   107.77   109.43   111.10   111.43   111.77   112.10   112.43   112.77   113.10   113.43   113.77   114.10   114.43   114.77   115.10   115.43   115.77   116.10   116.43   116.77   117.10   117.43   117.77   118.10   118.43   118.77   119.10   119.43   119.77
119.72   119.38   119.05   118.72   118.38   118.05   117.72   117.38   117.05   116.72   116.38   116.05   115.72   115.38   115.05   114.72   114.38   114.05   113.72   113.38   113.05   112.72   112.38   112.05   111.72   111.38   111.05   109.38   107.72   106.05   103.55   101.05    99.38    97.72    96.05    96.05    97.72    99.38   101.05   103.55   106.05   107.72   109.38   111.05   111.38   111.72   112.05   112.38   112.72   113.05   113.38   113.72   114.05   114.38   114.72   115.05   115.38   115.72   116.05   116.38   116.72   117.05   117.38   117.72   118.05   118.38   118.72   119.05   119.38   119.72
119.67   119.33   119.00   118.67   118.33   118.00   117.67   117.33   117.00   116.67   116.33   116.00   115.67   115.33   115.00   114.67   114.33   114.00   113.67   113.33   113.00   112.67   112.33   112.00   111.67   111.33   111.00   109.33   107.67   106.00   103.50   101.00    99.33    97.67    96.00    96.00    97.67    99.33   101.00   103.50   106.00   107.67   109.33   111.00   111.33   111.67   112.00   112.33   112.67   113.00   113.33   113.67   114.00   114.33   114.67   115.00   115.33   115.67   116.00   116.33   116.67   117.00   117.33   117.67   118.00   118.33   118.67   119.00   119.33   119.67
119.62   119.28   118.95   118.62   118.28   117.95   117.62   117.28   116.95   116.62   116.28   115.95   115.62   115.28   114.95   114.62   114.28   113.95   113.62   113.28   112.95   112.62   112.28   111.95   111.62   111.28   110.95   109.28   107.62   105.95   103.45   100.95    99.28    97.62    95.95    95.95    97.62    99.28   100.95   103.45   105.95   107.62   109.28   110.95   111.28   111.62   111.95   112.28   112.62   112.95   113.28   113.62   113.95   114.28   114.62   114.95   115.28   115.62   115.95   116.28   116.62   116.95   117.28   117.62   117.95   118.28   118.62   118.95   119.28   119.62
119.57   119.23   118.90   118.57   118.23   117.90   117.57   117.23   116.90   116.57   116.23   115.90   115.57   115.23   114.90   114.57   114.23   113.90   113.57   113.23   112.90   112.57   112.23   111.90   111.57   111.23   110.90   109.23   107.57   105.90   103.40   100.90    99.23    97.57    95.90    95.90    97.57    99.23   100.90   103.40   105.90   107.57   109.23   110.90   111.23   111.57   111.90   112.23   112.57   112.90   113.23   113.57   113.90   114.23   114.57   114.90   115.23   115.57   115.90   116.23   116.57   116.90   117.23   117.57   117.90   118.23   118.57   118.90   119.23   119.57
119.52   119.18   118.85   118.52   118.18   117.85   117.52   117.18   116.85   116.52   116.18   115.85   115.52   115.18   114.85   114.52   114.18   113.85   113.52   113.18   112.85   112.52   112.18   111.85   111.52   111.18   110.85   109.18   107.52   105.85   103.35   100.85    99.18    97.52    95.85    95.85    97.52    99.18   100.85   103.35   105.85   107.52   109.18   110.85   111.18   111.52   111.85   112.18   112.52   112.85   113.18   113.52   113.85   114.18   114.52   114.85   115.18   115.52   115.85   116.18   116.52   116.85   117.18   117.52   117.85   118.18   118.52   118.85   119.18   119.52
119.47   119.13   118.80   118.47   118.13   117.80   117.47   117.13   116.80   116.47   116.13   115.80   115.47   115.13   114.80   114.47   114.13   113.80   113.47   113.13   112.80   112.47   112.13   111.80   111.47   111.13   110.80   109.13   107.47   105.80   103.30   100.80    99.13    97.47    95.80    95.80    97.47    99.13   100.80   103.30   105.80   107.47   109.13   110.80   111.13   111.47   111.80   112.13   112.47   112.80   113.13   113.47   113.80   114.13   114.47   114.80   115.13   115.47   115.80   116.13   116.47   116.80   117.13   117.47   117.80   118.13   118.47   118.80   119.13   119.47
119.42   119.08   118.75   118.42   118.08   117.75   117.42   117.08   116.75   116.42   116.08   115.75   115.42   115.08   114.75   114.42   114.08   113.75   113.42   113.08   112.75   112.42   112.08   111.75   111.42   111.08   110.75   109.08   107.42   105.75   103.25   100.75    99.08    97.42    95.75    95.75    97.42    99.08   100.75   103.25   105.75   107.42   109.08   110.75   111.08   111.42   111.75   112.08   112.42   112.75   113.08   113.42   113.75   114.08   114.42   114.75   115.08   115.42   115.75   116.08   116.42   116.75   117.08   117.42   117.75   118.08   118.42   118.75   119.08   119.42
119.37   119.03   118.70   118.37   118.03   117.70   117.37   117.03   116.70   116.37   116.03   115.70   115.37   115.03   114.70   114.37   114.03   113.70   113.37   113.03   112.70   112.37   112.03   111.70   111.37   111.03   110.70   109.03   107.37   105.70   103.20   100.70    99.03    97.37    95.70    95.70    97.37    99.03   100.70   103.20   105.70   107.37   109.03   110.70   111.03   111.37   111.70   112.03   112.37   112.70   113.03   113.37   113.70   114.03   114.37   114.70   115.03   115.37   115.70   116.03   116.37   116.70   117.03   117.37   117.70   118.03   118.37   118.70   119.03   119.37
119.32   118.98   118.65   118.32   117.98   117.65   117.32   116.98   116.65   116.32   115.98   115.65   115.32   114.98   114.65   114.32   113.98   113.65   113.32   112.98   112.65   112.32   111.98   111.65   111.32   110.98   110.65   108.98   107.32   105.65   103.15   100.65    98.98    97.32    95.65    95.65    97.32    98.98   100.65   103.15   105.65   107.32   108.98   110.65   110.98   111.32   111.65   111.98   112.32   112.65   112.98   113.32   113.65   113.98   114.32   114.65   114.98   115.32   115.65   115.98   116.32   116.65   116.98   117.32   117.65   117.98   118.32   118.65   118.98   119.32
119.27   118.93   118.60   118.27   117.93   117.60   117.27   116.93   116.60   116.27   115.93   115.60   115.27   114.93   114.60   114.27   113.93   113.60   113.27   112.93   112.60   112.27   111.93   111.60   111.27   110.93   110.60   108.93   107.27   105.60   103.10   100.60    98.93    97.27    95.60    95.60    97.27    98.93   100.60   103.10   105.60   107.27   108.93   110.60   110.93   111.27   111.60   111.93   112.27   112.60   112.93   113.27   113.60   113.93   114.27   114.60   114.93   115.27   115.60   115.93   116.27   116.60   116.93   117.27   117.60   117.93   118.27   118.60   118.93   119.27
119.22   118.88   118.55   118.22   117.88   117.55   117.22   116.88   116.55   116.22   115.88   115.55   115.22   114.88   114.55   114.22   113.88   113.55   113.22   112.88   112.55   112.22   111.88   111.55   111.22   110.88   110.55   108.88   107.22   105.55   103.05   100.55    98.88    97.22    95.55    95.55    97.22    98.88   100.55   103.05   105.55   107.22   108.88   110.55   110.88   111.22   111.55   111.88   112.22   112.55   112.88   113.22   113.55   113.88   114.22   114.55   114.88   115.22   115.55   115.88   116.22   116.55   116.88   117.22   117.55   117.88   118.22   118.55   118.88   119.22
119.17   118.83   118.50   118.17   117.83   117.50   117.17   116.83   116.50   116.17   115.83   115.50   115.17   114.83   114.50   114.17   113.83   113.50   113.17   112.83   112.50   112.17   111.83   111.50   111.17   110.83   110.50   108.83   107.17   105.50   103.00   100.50    98.83    97.17    95.50    95.50    97.17    98.83   100.50   103.00   105.50   107.17   108.83   110.50   110.83   111.17   111.50   111.83   112.17   112.50   112.83   113.17   113.50   113.83   114.17   114.50   114.83   115.17   115.50   115.83   116.17   116.50   116.83   117.17   117.50   117.83   118.17   118.50   118.83   119.17
119.12   118.78   118.45   118.12   117.78   117.45   117.12   116.78   116.45   116.12   115.78   115.45   115.12   114.78   114.45   114.12   113.78   113.45   113.12   112.78   112.45   112.12   111.78   111.45   111.12   110.78   110.45   108.78   107.12   105.45   102.95   100.45    98.78    97.12    95.45    95.45    97.12    98.78   100.45   102.95   105.45   107.12   108.78   110.45   110.78   111.12   111.45   111.78   112.12   112.45   112.78   113.12   113.45   113.78   114.12   114.45   114.78   115.12   115.45   115.78   116.12   116.45   116.78   117.12   117.45   117.78   118.12   118.45   118.78   119.12
119.07   118.73   118.40   118.07   117.73   117.40   117.07   116.73   116.40   116.07   115.73   115.40   115.07   114.73   114.40   114.07   113.73   113.40   113.07   112.73   112.40   112.07   111.73   111.40   111.07   110.73   110.40   108.73   107.07   105.40   102.90   100.40    98.73    97.07    95.40    95.40    97.07    98.73   100.40   102.90   105.40   107.07   108.73   110.40   110.73   111.07   111.40   111.73   112.07   112.40   112.73   113.07   113.40   113.73   114.07   114.40   114.73   115.07   115.40   115.73   116.07   116.40   116.73   117.07   117.40   117.73   118.07   118.40   118.73   119.07
119.02   118.68   118.35   118.02   117.68   117.35   117.02   116.68   116.35   116.02   115.68   115.35   115.02   114.68   114.35   114.02   113.68   113.35   113.02   112.68   112.35   112.02   111.68   111.35   111.02   110.68   110.35   108.68   107.02   105.35   102.85   100.35    98.68    97.02    95.35    95.35    97.02    98.68   100.35   102.85   105.35   107.02   108.68   110.35   110.68   111.02   111.35   111.68   112.02   112.35   112.68   113.02   113.35   113.68   114.02   114.35   114.68   115.02   115.35   115.68   116.02   116.35   116.68   117.02   117.35   117.68   118.02   118.35   118.68   119.02
118.97   118.63   118.30   117.97   117.63   117.30   116.97   116.63   116.30   115.97   115.63   115.30   114.97   114.63   114.30   113.97   113.63   113.30   112.97   112.63   112.30   111.97   111.63   111.30   110.97   110.63   110.30   108.63   106.97   105.30   102.80   100.30    98.63    96.97    95.30    95.30    96.97    98.63   100.30   102.80   105.30   106.97   108.63   110.30   110.63   110.97   111.30   111.63   111.97   112.30   112.63   112.97   113.30   113.63   113.97   114.30   114.63   114.97   115.30   115.63   115.97   116.30   116.63   116.97   117.30   117.63   117.97   118.30   118.63   118.97
118.92   118.58   118.25   117.92   117.58   117.25   116.92   116.58   116.25   115.92   115.58   115.25   114.92   114.58   114.25   113.92   113.58   113.25   112.92   112.58   112.25   111.92   111.58   111.25   110.92   110.58   110.25   108.58   106.92   105.25   102.75   100.25    98.58    96.92    95.25    95.25    96.92    98.58   100.25   102.75   105.25   106.92   108.58   110.25   110.58   110.92   111.25   111.58   111.92   112.25   112.58   112.92   113.25   113.58   113.92   114.25   114.58   114.92   115.25   115.58   115.92   116.25   116.58   116.92   117.25   117.58   117.92   118.25   118.58   118.92
118.87   118.53   118.20   117.87   117.53   117.20   116.87   116.53   116.20   115.87   115.53   115.20   114.87   114.53   114.20   113.87   113.53   113.20   112.87   112.53   112.20   111.87   111.53   111.20   110.87   110.53   110.20   108.53   106.87   105.20   102.70   100.20    98.53    96.87    95.20    95.20    96.87    98.53   100.20   102.70   105.20   106.87   108.53   110.20   110.53   110.87   111.20   111.53   111.87   112.20   112.53   112.87   113.20   113.53   113.87   114.20   114.53   114.87   115.20   115.53   115.87   116.20   116.53   116.87   117.20   117.53   117.87   118.20   118.53   118.87
118.82   118.48   118.15   117.82   117.48   117.15   116.82   116.48   116.15   115.82   115.48   115.15   114.82   114.48   114.15   113.82   113.48   113.15   112.82   112.48   112.15   111.82   111.48   111.15   110.82   110.48   110.15   108.48   106.82   105.15   102.65   100.15    98.48    96.82    95.15    95.15    96.82    98.48   100.15   102.65   105.15   106.82   108.48   110.15   110.48   110.82   111.15   111.48   111.82   112.15   112.48   112.82   113.15   113.48   113.82   114.15   114.48   114.82   115.15   115.48   115.82   116.15   116.48   116.82   117.15   117.48   117.82   118.15   118.48   118.82
118.77   118.43   118.10   117.77   117.43   117.10   116.77   116.43   116.10   115.77   115.43   115.10   114.77   114.43   114.10   113.77   113.43   113.10   112.77   112.43   112.10   111.77   111.43   111.10   110.77   110.43   110.10   108.43   106.77   105.10   102.60   100.10    98.43    96.77    95.10    95.10    96.77    98.43   100.10   102.60   105.10   106.77   108.43   110.10   110.43   110.77   111.10   111.43   111.77   112.10   112.43   112.77   113.10   113.43   113.77   114.10   114.43   114.77   115.10   115.43   115.77   116.10   116.43   116.77   117.10   117.43   117.77   118.10   118.43   118.77
118.72   118.38   118.05   117.72   117.38   117.05   116.72   116.38   116.05   115.72   115.38   115.05   114.72   114.38   114.05   113.72   113.38   113.05   112.72   112.38   112.05   111.72   111.38   111.05   110.72   110.38   110.05   108.38   106.72   105.05   102.55   100.05    98.38    96.72    95.05    95.05    96.72    98.38   100.05   102.55   105.05   106.72   108.38   110.05   110.38   110.72   111.05   111.38   111.72   112.05   112.38   112.72   113.05   113.38   113.72   114.05   114.38   114.72   115.05   115.38   115.72   116.05   116.38   116.72   117.05   117.38   117.72   118.05   118.38   118.72
118.67   118.33   118.00   117.67   117.33   117.00   116.67   116.33   116.00   115.67   115.33   115.00   114.67   114.33   114.00   113.67   113.33   113.00   112.67   112.33   112.00   111.67   111.33   111.00   110.67   110.33   110.00   108.33   106.67   105.00   102.50   100.00    98.33    96.67    95.00    95.00    96.67    98.33   100.00   102.50   105.00   106.67   108.33   110.00   110.33   110.67   111.00   111.33   111.67   112.00   112.33   112.67   113.00   113.33   113.67   114.00   114.33   114.67   115.00   115.33   115.67   116.00   116.33   116.67   117.00   117.33   117.67   118.00   118.33   118.67
118.62   118.28   117.95   117.62   117.28   116.95   116.62   116.28   115.95   115.62   115.28   114.95   114.62   114.28   113.95   113.62   113.28   112.95   112.62   112.28   111.95   111.62   111.28   110.95   110.62   110.28   109.95   108.28   106.62   104.95   102.45    99.95    98.28    96.62    94.95    94.95    96.62    98.28    99.95   102.45   104.95   106.62   108.28   109.95   110.28   110.62   110.95   111.28   111.62   111.95   112.28   112.62   112.95   113.28   113.62   113.95   114.28   114.62   114.95   115.28   115.62   115.95   116.28   116.62   116.95   117.28   117.62   117.95   118.28   118.62
118.57   118.23   117.90   117.57   117.23   116.90   116.57   116.23   115.90   115.57   115.23   114.90   114.57   114.23   113.90   113.57   113.23   112.90   112.57   112.23   111.90   111.57   111.23   110.90   110.57   110.23   109.90   108.23   106.57   104.90   102.40    99.90    98.23    96.57    94.90    94.90    96.57    98.23    99.90   102.40   104.90   106.57   108.23   109.90   110.23   110.57   110.90   111.23   111.57   111.90   112.23   112.57   112.90   113.23   113.57   113.90   114.23   114.57   114.90   115.23   115.57   115.90   116.23   116.57   116.90   117.23   117.57   117.90   118.23   118.57
118.52   118.18   117.85   117.52   117.18   116.85   116.52   116.18   115.85   115.52   115.18   114.85   114.52   114.18   113.85   113.52   113.18   112.85   112.52   112.18   111.85   111.52   111.18   110.85   110.52   110.18   109.85   108.18   106.52   104.85   102.35    99.85    98.18    96.52    94.85    94.85    96.52    98.18    99.85   102.35   104.85   106.52   108.18   109.85   110.18   110.52   110.85   111.18   111.52   111.85   112.18   112.52   112.85   113.18   113.52   113.85   114.18   114.52   114.85   115.18   115.52   115.85   116.18   116.52   116.85   117.18   117.52   117.85   118.18   118.52
118.47   118.13   117.80   117.47   117.13   116.80   116.47   116.13   115.80   115.47   115.13   114.80   114.47   114.13   113.80   113.47   113.13   112.80   112.47   112.13   111.80   111.47   111.13   110.80   110.47   110.13   109.80   108.13   106.47   104.80   102.30    99.80    98.13    96.47    94.80    94.80    96.47    98.13    99.80   102.30   104.80   106.47   108.13   109.80   110.13   110.47   110.80   111.13   111.47   111.80   112.13   112.47   112.80   113.13   113.47   113.80   114.13   114.47   114.80   115.13   115.47   115.80   116.13   116.47   116.80   117.13   117.47   117.80   118.13   118.47
118.42   118.08   117.75   117.42   117.08   116.75   116.42   116.08   115.75   115.42   115.08   114.75   114.42   114.08   113.75   113.42   113.08   112.75   112.42   112.08   111.75   111.42   111.08   110.75   110.42   110.08   109.75   108.08   106.42   104.75   102.25    99.75    98.08    96.42    94.75    94.75    96.42    98.08    99.75   102.25   104.75   106.42   108.08   109.75   110.08   110.42   110.75   111.08   111.42   111.75   112.08   112.42   112.75   113.08   113.42   113.75   114.08   114.42   114.75   115.08   115.42   115.75   116.08   116.42   116.75   117.08   117.42   117.75   118.08   118.42
118.37   118.03   117.70   117.37   117.03   116.70   116.37   116.03   115.70   115.37   115.03   114.70   114.37   114.03   113.70   113.37   113.03   112.70   112.37   112.03   111.70   111.37   111.03   110.70   110.37   110.03   109.70   108.03   106.37   104.70   102.20    99.70    98.03    96.37    94.70    94.70    96.37    98.03    99.70   102.20   104.70   106.37   108.03   109.70   110.03   110.37   110.70   111.03   111.37   111.70   112.03   112.37   112.70   113.03   113.37   113.70   114.03   114.37   114.70   115.03   115.37   115.70   116.03   116.37   116.70   117.03   117.37   117.70   118.03   118.37
118.32   117.98   117.65   117.32   116.98   116.65   116.32   115.98   115.65   115.32   114.98   114.65   114.32   113.98   113.65   113.32   112.98   112.65   112.32   111.98   111.65   111.32   110.98   110.65   110.32   109.98   109.65   107.98   106.32   104.65   102.15    99.65    97.98    96.32    94.65    94.65    96.32    97.98    99.65   102.15   104.65   106.32   107.98   109.65   109.98   110.32   110.65   110.98   111.32   111.65   111.98   112.32   112.65   112.98   113.32   113.65   113.98   114.32   114.65   114.98   115.32   115.65   115.98   116.32   116.65   116.98   117.32   117.65   117.98   118.32
118.27   117.93   117.60   117.27   116.93   116.60   116.27   115.93   115.60   115.27   114.93   114.60   114.27   113.93   113.60   113.27   112.93   112.60   112.27   111.93   111.60   111.27   110.93   110.60   110.27   109.93   109.60   107.93   106.27   104.60   102.10    99.60    97.93    96.27    94.60    94.60    96.27    97.93    99.60   102.10   104.60   106.27   107.93   109.60   109.93   110.27   110.60   110.93   111.27   111.60   111.93   112.27   112.60   112.93   113.27   113.60   113.93   114.27   114.60   114.93   115.27   115.60   115.93   116.27   116.60   116.93   117.27   117.60   117.93   118.27
118.22   117.88   117.55   117.22   116.88   116.55   116.22   115.88   115.55   115.22   114.88   114.55   114.22   113.88   113.55   113.22   112.88   112.55   112.22   111.88   111.55   111.22   110.88   110.55   110.22   109.88   109.55   107.88   106.22   104.55   102.05    99.55    97.88    96.22    94.55    94.55    96.22    97.88    99.55   102.05   104.55   106.22   107.88   109.55   109.88   110.22   110.55   110.88   111.22   111.55   111.88   112.22   112.55   112.88   113.22   113.55   113.88   114.22   114.55   114.88   115.22   115.55   115.88   116.22   116.55   116.88   117.22   117.55   117.88   118.22
118.17   117.83   117.50   117.17   116.83   116.50   116.17   115.83   115.50   115.17   114.83   114.50   114.17   113.83   113.50   113.17   112.83   112.50   112.17   111.83   111.50   111.17   110.83   110.50   110.17   109.83   109.50   107.83   106.17   104.50   102.00    99.50    97.83    96.17    94.50    94.50    96.17    97.83    99.50   102.00   104.50   106.17   107.83   109.50   109.83   110.17   110.50   110.83   111.17   111.50   111.83   112.17   112.50   112.83   113.17   113.50   113.83   114.17   114.50   114.83   115.17   115.50   115.83   116.17   116.50   116.83   117.17   117.50   117.83   118.17
118.12   117.78   117.45   117.12   116.78   116.45   116.12   115.78   115.45   115.12   114.78   114.45   114.12   113.78   113.45   113.12   112.78   112.45   112.12   111.78   111.45   111.12   110.78   110.45   120.00   120.00   109.45   107.78   120.00   120.00   101.95    99.45    97.78    96.12    94.45    94.45    96.12    97.78    99.45   101.95   120.00   120.00   107.78   109.45   120.00   120.00   110.45   110.78   111.12   111.45   111.78   112.12   112.45   112.78   113.12   113.45   113.78   114.12   114.45   114.78   115.12   115.45   115.78   116.12   116.45   116.78   117.12   117.45   117.78   118.12
118.07   117.73   117.40   117.07   116.73   116.40   116.07   115.73   115.40   115.07   114.73   114.40   114.07   113.73   113.40   113.07   112.73   112.40   112.07   111.73   111.40   111.07   110.73   110.40   120.00   120.00   109.40   107.73   120.00   120.00   101.90    99.40    97.73    96.07    94.40    94.40    96.07    97.73    99.40   101.90   120.00   120.00   107.73   109.40   120.00   120.00   110.40   110.73   111.07   111.40   111.73   112.07   112.40   112.73   113.07   113.40   113.73   114.07   114.40   114.73   115.07   115.40   115.73   116.07   116.40   116.73   117.07   117.40   117.73   118.07
118.02   117.68   117.35   117.02   116.68   116.35   116.02   115.68   115.35   115.02   114.68   114.35   114.02   113.68   113.35   113.02   112.68   112.35   112.02   111.68   111.35   111.02   110.68   110.35   109.63   120.00   109.35   107.68   104.30   120.00   101.85    99.35    97.68    96.02    94.35    94.35    96.02    97.68    99.35   101.85   120.00   104.30   107.68   109.35   120.00   109.63   110.35   110.68   111.02   111.35   111.68   112.02   112.35   112.68   113.02   113.35   113.68   114.02   114.35   114.68   115.02   115.35   115.68   116.02   116.35   116.68   117.02   117.35   117.68   118.02
117.97   117.63   117.30   116.97   116.63   116.30   115.97   115.63   115.30   114.97   114.63   114.30   113.97   113.63   113.30   112.97   112.63   112.30   111.97   111.63   111.30   110.97   110.63   110.30   109.97   109.63   109.30   107.63   105.97   104.30   101.80    99.30    97.63    95.97    94.30    94.30    95.97    97.63    99.30   101.80   104.30   105.97   107.63   109.30   109.63   109.97   110.30   110.63   110.97   111.30   111.63   111.97   112.30   112.63   112.97   113.30   113.63   113.97   114.30   114.63   114.97   115.30   115.63   115.97   116.30   116.63   116.97   117.30   117.63   117.97
117.92   117.58   117.25   116.92   116.58   116.25   115.92   115.58   115.25   114.92   114.58   114.25   113.92   113.58   113.25   112.92   112.58   112.25   111.92   111.58   111.25   110.92   110.58   110.25   109.92   109.58   109.25   107.58   105.92   104.25   101.75    99.25    97.58    95.92    94.25    94.25    95.92    97.58    99.25   101.75   104.25   105.92   107.58   109.25   109.58   109.92   110.25   110.58   110.92   111.25   111.58   111.92   112.25   112.58   112.92   113.25   113.58   113.92   114.25   114.58   114.92   115.25   115.58   115.92   116.25   116.58   116.92   117.25   117.58   117.92
117.87   117.53   117.20   116.87   116.53   116.20   115.87   115.53   115.20   114.87   114.53   114.20   113.87   113.53   113.20   112.87   112.53   112.20   111.87   111.53   111.20   110.87   110.53   110.20   120.00   120.00   109.20   107.53   120.00   120.00   101.70    99.20    97.53    95.87    94.20    94.20    95.87    97.53    99.20   101.70   120.00   120.00   107.53   109.20   120.00   120.00   110.20   110.53   110.87   111.20   111.53   111.87   112.20   112.53   112.87   113.20   113.53   113.87   114.20   114.53   114.87   115.20   115.53   115.87   116.20   116.53   116.87   117.20   117.53   117.87
117.82   117.48   117.15   116.82   116.48   116.15   115.82   115.48   115.15   114.82   114.48   114.15   113.82   113.48   113.15   112.82   112.48   112.15   111.82   111.48   111.15   110.82   110.48   110.15   120.00   120.00   109.15   107.48   120.00   120.00   101.65    99.15    97.48    95.82    94.15    94.15    95.82    97.48    99.15   101.65   120.00   120.00   107.48   109.15   120.00   120.00   110.15   110.48   110.82   111.15   111.48   111.82   112.15   112.48   112.82   113.15   113.48   113.82   114.15   114.48   114.82   115.15   115.48   115.82   116.15   116.48   116.82   117.15   117.48   117.82
117.77   117.43   117.10   116.77   116.43   116.10   115.77   115.43   115.10   114.77   114.43   114.10   113.77   113.43   113.10   112.77   112.43   112.10   111.77   111.43   111.10   110.77   110.43   110.10   109.38   120.00   109.10   107.43   104.05   120.00   101.60    99.10    97.43    95.77    94.10    94.10    95.77    97.43    99.10   101.60   120.00   104.05   107.43   109.10   120.00   109.38   110.10   110.43   110.77   111.10   111.43   111.77   112.10   112.43   112.77   113.10   113.43   113.77   114.10   114.43   114.77   115.10   115.43   115.77   116.10   116.43   116.77   117.10   117.43   117.77
117.72   117.38   117.05   116.72   116.38   116.05   115.72   115.38   115.05   114.72   114.38   114.05   113.72   113.38   113.05   112.72   112.38   112.05   111.72   111.38   111.05   110.72   110.38   110.05   109.72   109.38   109.05   107.38   105.72   104.05   101.55    99.05    97.38    95.72    94.05    94.05    95.72    97.38    99.05   101.55   104.05   105.72   107.38   109.05   109.38   109.72   110.05   110.38   110.72   111.05   111.38   111.72   112.05   112.38   112.72   113.05   113.38   113.72   114.05   114.38   114.72   115.05   115.38   115.72   116.05   116.38   116.72   117.05   117.38   117.72
117.67   117.33   117.00   116.67   116.33   116.00   115.67   115.33   115.00   114.67   114.33   114.00   113.67   113.33   113.00   112.67   112.33   112.00   111.67   111.33   111.00   110.67   110.33   110.00   109.67   109.33   109.00   107.33   105.67   104.00   101.50    99.00    97.33    95.67    94.00    94.00    95.67    97.33    99.00   101.50   104.00   105.67   107.33   109.00   109.33   109.67   110.00   110.33   110.67   111.00   111.33   111.67   112.00   112.33   112.67   113.00   113.33   113.67   114.00   114.33   114.67   115.00   115.33   115.67   116.00   116.33   116.67   117.00   117.33   117.67
117.62   117.28   116.95   116.62   116.28   115.95   115.62   115.28   114.95   114.62   114.28   113.95   113.62   113.28   112.95   112.62   112.28   111.95   111.62   111.28   110.95   110.62   110.28   109.95   120.00   120.00   108.95   107.28   120.00   120.00   101.45    98.95    97.28    95.62    93.95    93.95    95.62    97.28    98.95   101.45   120.00   120.00   107.28   108.95   120.00   120.00   109.95   110.28   110.62   110.95   111.28   111.62   111.95   112.28   112.62   112.95   113.28   113.62   113.95   114.28   114.62   114.95   115.28   115.62   115.95   116.28   116.62   116.95   117.28   117.62
117.57   117.23   116.90   116.57   116.23   115.90   115.57   115.23   114.90   114.57   114.23   113.90   113.57   113.23   112.90   112.57   112.23   111.90   111.57   111.23   110.90   110.57   110.23   109.90   120.00   120.00   108.90   107.23   120.00   120.00   101.40    98.90    97.23    95.57    93.90    93.90    95.57    97.23    98.90   101.40   120.00   120.00   107.23   108.90   120.00   120.00   109.90   110.23   110.57   110.90   111.23   111.57   111.90   112.23   112.57   112.90   113.23   113.57   113.90   114.23   114.57   114.90   115.23   115.57   115.90   116.23   116.57   116.90   117.23   117.57
117.52   117.18   116.85   116.52   116.18   115.85   115.52   115.18   114.85   114.52   114.18   113.85   113.52   113.18   112.85   112.52   112.18   111.85   111.52   111.18   110.85   110.52   110.18   109.85   109.13   120.00   108.85   107.18   103.80   120.00   101.35    98.85    97.18    95.52    93.85    93.85    95.52    97.18    98.85   101.35   120.00   103.80   107.18   108.85   120.00   109.13   109.85   110.18   110.52   110.85   111.18   111.52   111.85   112.18   112.52   112.85   113.18   113.52   113.85   114.18   114.52   114.85   115.18   115.52   115.85   116.18   116.52   116.85   117.18   117.52
117.47   117.13   116.80   116.47   116.13   115.80   115.47   115.13   114.80   114.47   114.13   113.80   113.47   113.13   112.80   112.47   112.13   111.80   111.47   111.13   110.80   110.47   110.13   109.80   109.47   109.13   108.80   107.13   105.47   103.80   101.30    98.80    97.13    95.47    93.80    93.80    95.47    97.13    98.80   101.30   103.80   105.47   107.13   108.80   109.13   109.47   109.80   110.13   110.47   110.80   111.13   111.47   111.80   112.13   112.47   112.80   113.13   113.47   113.80   114.13   114.47   114.80   115.13   115.47   115.80   116.13   116.47   116.80   117.13   117.47
117.42   117.08   116.75   116.42   116.08   115.75   115.42   115.08   114.75   114.42   114.08   113.75   113.42   113.08   112.75   112.42   112.08   111.75   111.42   111.08   110.75   110.42   110.08   109.75   109.42   109.08   108.75   107.08   105.42   103.75   101.25    98.75    97.08    95.42    93.75    93.75    95.42    97.08    98.75   101.25   103.75   105.42   107.08   108.75   109.08   109.42   109.75   110.08   110.42   110.75   111.08   111.42   111.75   112.08   112.42   112.75   113.08   113.42   113.75   114.08   114.42   114.75   115.08   115.42   115.75   116.08   116.42   116.75   117.08   117.42
117.37   117.03   116.70   116.37   116.03   115.70   115.37   115.03   114.70   114.37   114.03   113.70   113.37   113.03   112.70   112.37   112.03   111.70   111.37   111.03   110.70   110.37   110.03   109.70   120.00   120.00   108.70   107.03   120.00   120.00   101.20    98.70    97.03    95.37    93.70    93.70    95.37    97.03    98.70   101.20   120.00   120.00   107.03   108.70   120.00   120.00   109.70   110.03   110.37   110.70   111.03   111.37   111.70   112.03   112.37   112.70   113.03   113.37   113.70   114.03   114.37   114.70   115.03   115.37   115.70   116.03   116.37   116.70   117.03   117.37
117.32   116.98   116.65   116.32   115.98   115.65   115.32   114.98   114.65   114.32   113.98   113.65   113.32   112.98   112.65   112.32   111.98   111.65   111.32   110.98   110.65   110.32   109.98   109.65   120.00   120.00   108.65   106.98   120.00   120.00   101.15    98.65    96.98    95.32    93.65    93.65    95.32    96.98    98.65   101.15   120.00   120.00   106.98   108.65   120.00   120.00   109.65   109.98   110.32   110.65   110.98   111.32   111.65   111.98   112.32   112.65   112.98   113.32   113.65   113.98   114.32   114.65   114.98   115.32   115.65   115.98   116.32   116.65   116.98   117.32
117.27   116.93   116.60   116.27   115.93   115.60   115.27   114.93   114.60   114.27   113.93   113.60   113.27   112.93   112.60   112.27   111.93   111.60   111.27   110.93   110.60   110.27   109.93   109.60   108.88   120.00   108.60   106.93   103.55   120.00   101.10    98.60    96.93    95.27    93.60    93.60    95.27    96.93    98.60   101.10   120.00   103.55   106.93   108.60   120.00   108.88   109.60   109.93   110.27   110.60   110.93   111.27   111.60   111.93   112.27   112.60   112.93   113.27   113.60   113.93   114.27   114.60   114.93   115.27   115.60   115.93   116.27   116.60   116.93   117.27
117.22   116.88   116.55   116.22   115.88   115.55   115.22   114.88   114.55   114.22   113.88   113.55   113.22   112.88   112.55   112.22   111.88   111.55   111.22   110.88   110.55   110.22   109.88   109.55   109.22   108.88   108.55   106.88   105.22   103.55   101.05    98.55    96.88    95.22    93.55    93.55    95.22    96.88    98.55   101.05   103.55   105.22   106.88   108.55   108.88   109.22   109.55   109.88   110.22   110.55   110.88   111.22   111.55   111.88   112.22   112.55   112.88   113.22   113.55   113.88   114.22   114.55   114.88   115.22   115.55   115.88   116.22   116.55   116.88   117.22
117.17   116.83   116.50   116.17   115.83   115.50   115.17   114.83   114.50   114.17   113.83   113.50   113.17   112.83   112.50   112.17   111.83   111.50   111.17   110.83   110.50   110.17   109.83   109.50   109.17   108.83   108.50   106.83   105.17   103.50   101.00    98.50    96.83    95.17    93.50    93.50    95.17    96.83    98.50   101.00   103.50   105.17   106.83   108.50   108.83   109.17   109.50   109.83   110.17   110.50   110.83   111.17   111.50   111.83   112.17   112.50   112.83   113.17   113.50   113.83   114.17   114.50   114.83   115.17   115.50   115.83   116.17   116.50   116.83   117.17
117.12   116.78   116.45   116.12   115.78   115.45   115.12   114.78   114.45   114.12   113.78   113.45   113.12   112.78   112.45   112.12   111.78   111.45   111.12   110.78   110.45   110.12   109.78   109.45   120.00   120.00   108.45   106.78   120.00   120.00   100.95    98.45    96.78    95.12    93.45    93.45    95.12    96.78    98.45   100.95   120.00   120.00   106.78   108.45   120.00   120.00   109.45   109.78   110.12   110.45   110.78   111.12   111.45   111.78   112.12   112.45   112.78   113.12   113.45   113.78   114.12   114.45   114.78   115.12   115.45   115.78   116.12   116.45   116.78   117.12
117.07   116.73   116.40   116.07   115.73   115.40   115.07   114.73   114.40   114.07   113.73   113.40   113.07   112.73   112.40   112.07   111.73   111.40   111.07   110.73   110.40   110.07   109.73   109.40   120.00   120.00   108.40   106.73   120.00   120.00   100.90    98.40    96.73    95.07    93.40    93.40    95.07    96.73    98.40   100.90   120.00   120.00   106.73   108.40   120.00   120.00   109.40   109.73   110.07   110.40   110.73   111.07   111.40   111.73   112.07   112.40   112.73   113.07   113.40   113.73   114.07   114.40   114.73   115.07   115.40   115.73   116.07   116.40   116.73   117.07
117.02   116.68   116.35   116.02   115.68   115.35   115.02   114.68   114.35   114.02   113.68   113.35   113.02   112.68   112.35   112.02   111.68   111.35   111.02   110.68   110.35   110.02   109.68   109.35   108.63   120.00   108.35   106.68   103.30   120.00   100.85    98.35    96.68    95.02    93.35    93.35    95.02    96.68    98.35   100.85   120.00   103.30   106.68   108.35   120.00   108.63   109.35   109.68   110.02   110.35   110.68   111.02   111.35   111.68   112.02   112.35   112.68   113.02   113.35   113.68   114.02   114.35   114.68   115.02   115.35   115.68   116.02   116.35   116.68   117.02
116.97   116.63   116.30   115.97   115.63   115.30   114.97   114.63   114.30   113.97   113.63   113.30   112.97   112.63   112.30   111.97   111.63   111.30   110.97   110.63   110.30   109.97   109.63   109.30   108.97   108.63   108.30   106.63   104.97   103.30   100.80    98.30    96.63    94.97    93.30    93.30    94.97    96.63    98.30   100.80   103.30   104.97   106.63   108.30   108.63   108.97   109.30   109.63   109.97   110.30   110.63   110.97   111.30   111.63   111.97   112.30   112.63   112.97   113.30   113.63   113.97   114.30   114.63   114.97   115.30   115.63   115.97   116.30   116.63   116.97
116.92   116.58   116.25   115.92   115.58   115.25   114.92   114.58   114.25   113.92   113.58   113.25   112.92   112.58   112.25   111.92   111.58   111.25   110.92   110.58   110.25   109.92   109.58   109.25   108.92   108.58   108.25   106.58   104.92   103.25   100.75    98.25    96.58    94.92    93.25    93.25    94.92    96.58    98.25   100.75   103.25   104.92   106.58   108.25   108.58   108.92   109.25   109.58   109.92   110.25   110.58   110.92   111.25   111.58   111.92   112.25   112.58   112.92   113.25   113.58   113.92   114.25   114.58   114.92   115.25   115.58   115.92   116.25   116.58   116.92
116.87   116.53   116.20   115.87   115.53   115.20   114.87   114.53   114.20   113.87   113.53   113.20   112.87   112.53   112.20   111.87   111.53   111.20   110.87   110.53   110.20   109.87   109.53   109.20   120.00   120.00   108.20   106.53   120.00   120.00   100.70    98.20    96.53    94.87    93.20    93.20    94.87    96.53    98.20   100.70   120.00   120.00   106.53   108.20   120.00   120.00   109.20   109.53   109.87   110.20   110.53   110.87   111.20   111.53   111.87   112.20   112.53   112.87   113.20   113.53   113.87   114.20   114.53   114.87   115.20   115.53   115.87   116.20   116.53   116.87
116.82   116.48   116.15   115.82   115.48   115.15   114.82   114.48   114.15   113.82   113.48   113.15   112.82   112.48   112.15   111.82   111.48   111.15   110.82   110.48   110.15   109.82   109.48   109.15   120.00   120.00   108.15   106.48   120.00   120.00   100.65    98.15    96.48    94.82    93.15    93.15    94.82    96.48    98.15   100.65   120.00   120.00   106.48   108.15   120.00   120.00   109.15   109.48   109.82   110.15   110.48   110.82   111.15   111.48   111.82   112.15   112.48   112.82   113.15   113.48   113.82   114.15   114.48   114.82   115.15   115.48   115.82   116.15   116.48   116.82
116.77   116.43   116.10   115.77   115.43   115.10   114.77   114.43   114.10   113.77   113.43   113.10   112.77   112.43   112.10   111.77   111.43   111.10   110.77   110.43   110.10   109.77   109.43   109.10   108.38   120.00   108.10   106.43   103.05   120.00   100.60    98.10    96.43    94.77    93.10    93.10    94.77    96.43    98.10   100.60   120.00   103.05   106.43   108.10   120.00   108.38   109.10   109.43   109.77   110.10   110.43   110.77   111.10   111.43   111.77   112.10   112.43   112.77   113.10   113.43   113.77   114.10   114.43   114.77   115.10   115.43   115.77   116.10   116.43   116.77
116.72   116.38   116.05   115.72   115.38   115.05   114.72   114.38   114.05   113.72   113.38   113.05   112.72   112.38   112.05   111.72   111.38   111.05   110.72   110.38   110.05   109.72   109.38   109.05   108.72   108.38   108.05   106.38   104.72   103.05   100.55    98.05    96.38    94.72    93.05    93.05    94.72    96.38    98.05   100.55   103.05   104.72   106.38   108.05   108.38   108.72   109.05   109.38   109.72   110.05   110.38   110.72   111.05   111.38   111.72   112.05   112.38   112.72   113.05   113.38   113.72   114.05   114.38   114.72   115.05   115.38   115.72   116.05   116.38   116.72
116.67   116.33   116.00   115.67   115.33   115.00   114.67   114.33   114.00   113.67   113.33   113.00   112.67   112.33   112.00   111.67   111.33   111.00   110.67   110.33   110.00   109.67   109.33   109.00   108.67   108.33   108.00   106.33   104.67   103.00   100.50    98.00    96.33    94.67    93.00    93.00    94.67    96.33    98.00   100.50   103.00   104.67   106.33   108.00   108.33   108.67   109.00   109.33   109.67   110.00   110.33   110.67   111.00   111.33   111.67   112.00   112.33   112.67   113.00   113.33   113.67   114.00   114.33   114.67   115.00   115.33   115.67   116.00   116.33   116.67
116.62   116.28   115.95   115.62   115.28   114.95   114.62   114.28   113.95   113.62   113.28   112.95   112.62   112.28   111.95   111.62   111.28   110.95   110.62   110.28   109.95   109.62   109.28   108.95   120.00   120.00   107.95   106.28   120.00   120.00   100.45    97.95    96.28    94.62    92.95    92.95    94.62    96.28    97.95   100.45   120.00   120.00   106.28   107.95   120.00   120.00   108.95   109.28   109.62   109.95   110.28   110.62   110.95   111.28   111.62   111.95   112.28   112.62   112.95   113.28   113.62   113.95   114.28   114.62   114.95   115.28   115.62   115.95   116.28   116.62
116.57   116.23   115.90   115.57   115.23   114.90   114.57   114.23   113.90   113.57   113.23   112.90   112.57   112.23   111.90   111.57   111.23   110.90   110.57   110.23   109.90   109.57   109.23   108.90   120.00   120.00   107.90   106.23   120.00   120.00   100.40    97.90    96.23    94.57    92.90    92.90    94.57    96.23    97.90   100.40   120.00   120.00   106.23   107.90   120.00   120.00   108.90   109.23   109.57   109.90   110.23   110.57   110.90   111.23   111.57   111.90   112.23   112.57   112.90   113.23   113.57   113.90   114.23   114.57   114.90   115.23   115.57   115.90   116.23   116.57
116.52   116.18   115.85   115.52   115.18   114.85   114.52   114.18   113.85   113.52   113.18   112.85   112.52   112.18   111.85   111.52   111.18   110.85   110.52   110.18   109.85   109.52   109.18   108.85   108.13   120.00   107.85   106.18   102.80   120.00   100.35    97.85    96.18    94.52    92.85    92.85    94.52    96.18    97.85   100.35   120.00   102.80   106.18   107.85   120.00   108.13   108.85   109.18   109.52   109.85   110.18   110.52   110.85   111.18   111.52   111.85   112.18   112.52   112.85   113.18   113.52   113.85   114.18   114.52   114.85   115.18   115.52   115.85   116.18   116.52
116.47   116.13   115.80   115.47   115.13   114.80   114.47   114.13   113.80   113.47   113.13   112.80   112.47   112.13   111.80   111.47   111.13   110.80   110.47   110.13   109.80   109.47   109.13   108.80   108.47   108.13   107.80   106.13   104.47   102.80   100.30    97.80    96.13    94.47    92.80    92.80    94.47    96.13    97.80   100.30   102.80   104.47   106.13   107.80   108.13   108.47   108.80   109.13   109.47   109.80   110.13   110.47   110.80   111.13   111.47   111.80   112.13   112.47   112.80   113.13   113.47   113.80   114.13   114.47   114.80   115.13   115.47   115.80   116.13   116.47
116.42   116.08   115.75   115.42   115.08   114.75   114.42   114.08   113.75   113.42   113.08   112.75   112.42   112.08   111.75   111.42   111.08   110.75   110.42   110.08   109.75   109.42   109.08   108.75   108.42   108.08   107.75   106.08   104.42   102.75   100.25    97.75    96.08    94.42    92.75    92.75    94.42    96.08    97.75   100.25   102.75   104.42   106.08   107.75   108.08   108.42   108.75   109.08   109.42   109.75   110.08   110.42   110.75   111.08   111.42   111.75   112.08   112.42   112.75   113.08   113.42   113.75   114.08   114.42   114.75   115.08   115.42   115.75   116.08   116.42
116.37   116.03   115.70   115.37   115.03   114.70   114.37   114.03   113.70   113.37   113.03   112.70   112.37   112.03   111.70   111.37   111.03   110.70   110.37   110.03   109.70   109.37   109.03   108.70   120.00   120.00   107.70   106.03   120.00   120.00   100.20    97.70    96.03    94.37    92.70    92.70    94.37    96.03    97.70   100.20   120.00   120.00   106.03   107.70   120.00   120.00   108.70   109.03   109.37   109.70   110.03   110.37   110.70   111.03   111.37   111.70   112.03   112.37   112.70   113.03   113.37   113.70   114.03   114.37   114.70   115.03   115.37   115.70   116.03   116.37
116.32   115.98   115.65   115.32   114.98   114.65   114.32   113.98   113.65   113.32   112.98   112.65   112.32   111.98   111.65   111.32   110.98   110.65   110.32   109.98   109.65   109.32   108.98   108.65   120.00   120.00   107.65   105.98   120.00   120.00   100.15    97.65    95.98    94.32    92.65    92.65    94.32    95.98    97.65   100.15   120.00   120.00   105.98   107.65   120.00   120.00   108.65   108.98   109.32   109.65   109.98   110.32   110.65   110.98   111.32   111.65   111.98   112.32   112.65   112.98   113.32   113.65   113.98   114.32   114.65   114.98   115.32   115.65   115.98   116.32
116.27   115.93   115.60   115.27   114.93   114.60   114.27   113.93   113.60   113.27   112.93   112.60   112.27   111.93   111.60   111.27   110.93   110.60   110.27   109.93   109.60   109.27   108.93   108.60   107.88   120.00   107.60   105.93   102.55   120.00   100.10    97.60    95.93    94.27    92.60    92.60    94.27    95.93    97.60   100.10   120.00   102.55   105.93   107.60   120.00   107.88   108.60   108.93   109.27   109.60   109.93   110.27   110.60   110.93   111.27   111.60   111.93   112.27   112.60   112.93   113.27   113.60   113.93   114.27   114.60   114.93   115.27   115.60   115.93   116.27
116.22   115.88   115.55   115.22   114.88   114.55   114.22   113.88   113.55   113.22   112.88   112.55   112.22   111.88   111.55   111.22   110.88   110.55   110.22   109.88   109.55   109.22   108.88   108.55   108.22   107.88   107.55   105.88   104.22   102.55   100.05    97.55    95.88    94.22    92.55    92.55    94.22    95.88    97.55   100.05   102.55   104.22   105.88   107.55   107.88   108.22   108.55   108.88   109.22   109.55   109.88   110.22   110.55   110.88   111.22   111.55   111.88   112.22   112.55   112.88   113.22   113.55   113.88   114.22   114.55   114.88   115.22   115.55   115.88   116.22
116.17   115.83   115.50   115.17   114.83   114.50   114.17   113.83   113.50   113.17   112.83   112.50   112.17   111.83   111.50   111.17   110.83   110.50   110.17   109.83   109.50   109.17   108.83   108.50   108.17   107.83   107.50   105.83   104.17   102.50   100.00    97.50    95.83    94.17    92.50    92.50    94.17    95.83    97.50   100.00   102.50   104.17   105.83   107.50   107.83   108.17   108.50   108.83   109.17   109.50   109.83   110.17   110.50   110.83   111.17   111.50   111.83   112.17   112.50   112.83   113.17   113.50   113.83   114.17   114.50   114.83   115.17   115.50   115.83   116.17
116.12   115.78   115.45   115.12   114.78   114.45   114.12   113.78   113.45   113.12   112.78   112.45   112.12   111.78   111.45   111.12   110.78   110.45   110.12   109.78   109.45   109.12   108.78   108.45   120.00   120.00   107.45   105.78   120.00   120.00    99.95    97.45    95.78    94.12    92.45    92.45    94.12    95.78    97.45    99.95   120.00   120.00   105.78   107.45   120.00   120.00   108.45   108.78   109.12   109.45   109.78   110.12   110.45   110.78   111.12   111.45   111.78   112.12   112.45   112.78   113.12   113.45   113.78   114.12   114.45   114.78   115.12   115.45   115.78   116.12
116.07   115.73   115.40   115.07   114.73   114.40   114.07   113.73   113.40   113.07   112.73   112.40   112.07   111.73   111.40   111.07   110.73   110.40   110.07   109.73   109.40   109.07   108.73   108.40   120.00   120.00   107.40   105.73   120.00   120.00    99.90    97.40    95.73    94.07    92.40    92.40    94.07    95.73    97.40    99.90   120.00   120.00   105.73   107.40   120.00   120.00   108.40   108.73   109.07   109.40   109.73   110.07   110.40   110.73   111.07   111.40   111.73   112.07   112.40   112.73   113.07   113.40   113.73   114.07   114.40   114.73   115.07   115.40   115.73   116.07
116.02   115.68   115.35   115.02   114.68   114.35   114.02   113.68   113.35   113.02   112.68   112.35   112.02   111.68   111.35   111.02   110.68   110.35   110.02   109.68   109.35   109.02   108.68   108.35   107.63   120.00   107.35   105.68   102.30   120.00    99.85    97.35    95.68    94.02    92.35    92.35    94.02    95.68    97.35    99.85   120.00   102.30   105.68   107.35   120.00   107.63   108.35   108.68   109.02   109.35   109.68   110.02   110.35   110.68   111.02   111.35   111.68   112.02   112.35   112.68   113.02   113.35   113.68   114.02   114.35   114.68   115.02   115.35   115.68   116.02
115.97   115.63   115.30   114.97   114.63   114.30   113.97   113.63   113.30   112.97   112.63   112.30   111.97   111.63   111.30   110.97   110.63   110.30   109.97   109.63   109.30   108.97   108.63   108.30   107.97   107.63   107.30   105.63   103.97   102.30    99.80    97.30    95.63    93.97    92.30    92.30    93.97    95.63    97.30    99.80   102.30   103.97   105.63   107.30   107.63   107.97   108.30   108.63   108.97   109.30   109.63   109.97   110.30   110.63   110.97   111.30   111.63   111.97   112.30   112.63   112.97   113.30   113.63   113.97   114.30   114.63   114.97   115.30   115.63   115.97
115.92   115.58   115.25   114.92   114.58   114.25   113.92   113.58   113.25   112.92   112.58   112.25   111.92   111.58   111.25   110.92   110.58   110.25   109.92   109.58   109.25   108.92   108.58   108.25   107.92   107.58   107.25   105.58   103.92   102.25    99.75    97.25    95.58    93.92    92.25    92.25    93.92    95.58    97.25    99.75   102.25   103.92   105.58   107.25   107.58   107.92   108.25   108.58   108.92   109.25   109.58   109.92   110.25   110.58   110.92   111.25   111.58   111.92   112.25   112.58   112.92   113.25   113.58   113.92   114.25   114.58   114.92   115.25   115.58   115.92
115.87   115.53   115.20   114.87   114.53   114.20   113.87   113.53   113.20   112.87   112.53   112.20   111.87   111.53   111.20   110.87   110.53   110.20   109.87   109.53   109.20   108.87   108.53   108.20   120.00   120.00   107.20   105.53   120.00   120.00    99.70    97.20    95.53    93.87    92.20    92.20    93.87    95.53    97.20    99.70   120.00   120.00   105.53   107.20   120.00   120.00   108.20   108.53   108.87   109.20   109.53   109.87   110.20   110.53   110.87   111.20   111.53   111.87   112.20   112.53   112.87   113.20   113.53   113.87   114.20   114.53   114.87   115.20   115.53   115.87
115.82   115.48   115.15   114.82   114.48   114.15   113.82   113.48   113.15   112.82   112.48   112.15   111.82   111.48   111.15   110.82   110.48   110.15   109.82   109.48   109.15   108.82   108.48   108.15   120.00   120.00   107.15   105.48   120.00   120.00    99.65    97.15    95.48    93.82    92.15    92.15    93.82    95.48    97.15    99.65   120.00   120.00   105.48   107.15   120.00   120.00   108.15   108.48   108.82   109.15   109.48   109.82   110.15   110.48   110.82   111.15   111.48   111.82   112.15   112.48   112.82   113.15   113.48   113.82   114.15   114.48   114.82   115.15   115.48   115.82
115.77   115.43   115.10   114.77   114.43   114.10   113.77   113.43   113.10   112.77   112.43   112.10   111.77   111.43   111.10   110.77   110.43   110.10   109.77   109.43   109.10   108.77   108.43   108.10   107.38   120.00   107.10   105.43   102.05   120.00    99.60    97.10    95.43    93.77    92.10    92.10    93.77    95.43    97.10    99.60   120.00   102.05   105.43   107.10   120.00   107.38   108.10   108.43   108.77   109.10   109.43   109.77   110.10   110.43   110.77   111.10   111.43   111.77   112.10   112.43   112.77   113.10   113.43   113.77   114.10   114.43   114.77   115.10   115.43   115.77
115.72   115.38   115.05   114.72   114.38   114.05   113.72   113.38   113.05   112.72   112.38   112.05   111.72   111.38   111.05   110.72   110.38   110.05   109.72   109.38   109.05   108.72   108.38   108.05   107.72   107.38   107.05   105.38   103.72   102.05    99.55    97.05    95.38    93.72    92.05    92.05    93.72    95.38    97.05    99.55   102.05   103.72   105.38   107.05   107.38   107.72   108.05   108.38   108.72   109.05   109.38   109.72   110.05   110.38   110.72   111.05   111.38   111.72   112.05   112.38   112.72   113.05   113.38   113.72   114.05   114.38   114.72   115.05   115.38   115.72
115.67   115.33   115.00   114.67   114.33   114.00   113.67   113.33   113.00   112.67   112.33   112.00   111.67   111.33   111.00   110.67   110.33   110.00   109.67   109.33   109.00   108.67   108.33   108.00   107.67   107.33   107.00   105.33   103.67   102.00    99.50    97.00    95.33    93.67    92.00    92.00    93.67    95.33    97.00    99.50   102.00   103.67   105.33   107.00   107.33   107.67   108.00   108.33   108.67   109.00   109.33   109.67   110.00   110.33   110.67   111.00   111.33   111.67   112.00   112.33   112.67   113.00   113.33   113.67   114.00   114.33   114.67   115.00   115.33   115.67
115.62   115.28   114.95   114.62   114.28   113.95   113.62   113.28   112.95   112.62   112.28   111.95   111.62   111.28   110.95   110.62   110.28   109.95   109.62   109.28   108.95   108.62   108.28   107.95   120.00   120.00   106.95   105.28   120.00   120.00    99.45    96.95    95.28    93.62    91.95    91.95    93.62    95.28    96.95    99.45   120.00   120.00   105.28   106.95   120.00   120.00   107.95   108.28   108.62   108.95   109.28   109.62   109.95   110.28   110.62   110.95   111.28   111.62   111.95   112.28   112.62   112.95   113.28   113.62   113.95   114.28   114.62   114.95   115.28   115.62
115.57   115.23   114.90   114.57   114.23   113.90   113.57   113.23   112.90   112.57   112.23   111.90   111.57   111.23   110.90   110.57   110.23   109.90   109.57   109.23   108.90   108.57   108.23   107.90   120.00   120.00   106.90   105.23   120.00   120.00    99.40    96.90    95.23    93.57    91.90    91.90    93.57    95.23    96.90    99.40   120.00   120.00   105.23   106.90   120.00   120.00   107.90   108.23   108.57   108.90   109.23   109.57   109.90   110.23   110.57   110.90   111.23   111.57   111.90   112.23   112.57   112.90   113.23   113.57   113.90   114.23   114.57   114.90   115.23   115.57
115.52   115.18   114.85   114.52   114.18   113.85   113.52   113.18   112.85   112.52   112.18   111.85   111.52   111.18   110.85   110.52   110.18   109.85   109.52   109.18   108.85   108.52   108.18   107.85   107.13   120.00   106.85   105.18   101.80   120.00    99.35    96.85    95.18    93.52    91.85    91.85    93.52    95.18    96.85    99.35   120.00   101.80   105.18   106.85   120.00   107.13   107.85   108.18   108.52   108.85   109.18   109.52   109.85   110.18   110.52   110.85   111.18   111.52   111.85   112.18   112.52   112.85   113.18   113.52   113.85   114.18   114.52   114.85   115.18   115.52
115.47   115.13   114.80   114.47   114.13   113.80   113.47   113.13   112.80   112.47   112.13   111.80   111.47   111.13   110.80   110.47   110.13   109.80   109.47   109.13   108.80   108.47   108.13   107.80   107.47   107.13   106.80   105.13   103.47   101.80    99.30    96.80    95.13    93.47    91.80    91.80    93.47    95.13    96.80    99.30   101.80   103.47   105.13   106.80   107.13   107.47   107.80   108.13   108.47   108.80   109.13   109.47   109.80   110.13   110.47   110.80   111.13   111.47   111.80   112.13   112.47   112.80   113.13   113.47   113.80   114.13   114.47   114.80   115.13   115.47
115.42   115.08   114.75   114.42   114.08   113.75   113.42   113.08   112.75   112.42   112.08   111.75   111.42   111.08   110.75   110.42   110.08   109.75   109.42   109.08   108.75   108.42   108.08   107.75   107.42   107.08   106.75   105.08   103.42   101.75    99.25    96.75    95.08    93.42    91.75    91.75    93.42    95.08    96.75    99.25   101.75   103.42   105.08   106.75   107.08   107.42   107.75   108.08   108.42   108.75   109.08   109.42   109.75   110.08   110.42   110.75   111.08   111.42   111.75   112.08   112.42   112.75   113.08   113.42   113.75   114.08   114.42   114.75   115.08   115.42
115.37   115.03   114.70   114.37   114.03   113.70   113.37   113.03   112.70   112.37   112.03   111.70   111.37   111.03   110.70   110.37   110.03   109.70   109.37   109.03   108.70   108.37   108.03   107.70   107.37   107.03   106.70   105.03   105.03   105.03   105.03   105.03   105.03   105.03    96.80    96.80   105.03   105.03   105.03   105.03   105.03   105.03   105.03   106.70   107.03   107.37   107.70   108.03   108.37   108.70   109.03   109.37   109.70   110.03   110.37   110.70   111.03   111.37   111.70   112.03   112.37   112.70   113.03   113.37   113.70   114.03   114.37   114.70   115.03   115.37
115.37   115.03   114.70   114.37   114.03   113.70   113.37   113.03   112.70   112.37   112.03   111.70   111.37   111.03   110.70   110.37   110.03   109.70   109.37   109.03   108.70   108.37   108.03   107.70   107.37   107.03   106.70   105.03   105.03   105.03   105.03   105.03   105.03   105.03    91.65    91.65   105.03   105.03   105.03   105.03   105.03   105.03   105.03   106.70   107.03   107.37   107.70   108.03   108.37   108.70   109.03   109.37   109.70   110.03   110.37   110.70   111.03   111.37   111.70   112.03   112.37   112.70   113.03   113.37   113.70   114.03   114.37   114.70   115.03   115.37
115.37   115.03   114.70   114.37   114.03   113.70   113.37   113.03   112.70   112.37   112.03   111.70   111.37   111.03   110.70   110.37   110.03   109.70   109.37   109.03   108.70   108.37   108.03   107.70   107.37   107.03   106.70   105.03   105.03   105.03   105.03   105.03   105.03   105.03    91.60    91.60   105.03   105.03   105.03   105.03   105.03   105.03   105.03   106.70   107.03   107.37   107.70   108.03   108.37   108.70   109.03   109.37   109.70   110.03   110.37   110.70   111.03   111.37   111.70   112.03   112.37   112.70   113.03   113.37   113.70   114.03   114.37   114.70   115.03   115.37
115.37   115.03   114.70   114.37   114.03   113.70   113.37   113.03   112.70   112.37   112.03   111.70   111.37   111.03   110.70   110.37   110.03   109.70   109.37   109.03   108.70   108.37   108.03   107.70   107.37   107.03   106.70   105.03   105.03   105.03   105.03   105.03   105.03   105.03    91.55    91.55   105.03   105.03   105.03   105.03   105.03   105.03   105.03   106.70   107.03   107.37   107.70   108.03   108.37   108.70   109.03   109.37   109.70   110.03   110.37   110.70   111.03   111.37   111.70   112.03   112.37   112.70   113.03   113.37   113.70   114.03   114.37   114.70   115.03   115.37
115.17   114.83   114.50   114.17   113.83   113.50   113.17   112.83   112.50   112.17   111.83   111.50   111.17   110.83   110.50   110.17   109.83   109.50   109.17   108.83   108.50   108.17   107.83   107.50   107.17   106.83   106.50   104.83   103.17   101.50    99.00    96.50    94.83    93.17    91.50    91.50    93.17    94.83    96.50    99.00   101.50   103.17   104.83   106.50   106.83   107.17   107.50   107.83   108.17   108.50   108.83   109.17   109.50   109.83   110.17   110.50   110.83   111.17   111.50   111.83   112.17   112.50   112.83   113.17   113.50   113.83   114.17   114.50   114.83   115.17
115.12   114.78   114.45   114.12   113.78   113.45   113.12   112.78   112.45   112.12   111.78   111.45   111.12   110.78   110.45   110.12   109.78   109.45   109.12   108.78   108.45   108.12   107.78   107.45   107.12   106.78   106.45   104.78   103.12   101.45    98.95    96.45    94.78    93.12    91.45    91.45    93.12    94.78    96.45    98.95   101.45   103.12   104.78   106.45   106.78   107.12   107.45   107.78   108.12   108.45   108.78   109.12   109.45   109.78   110.12   110.45   110.78   111.12   111.45   111.78   112.12   112.45   112.78   113.12   113.45   113.78   114.12   114.45   114.78   115.12
115.07   114.73   114.40   114.07   113.73   113.40   113.07   112.73   112.40   112.07   111.73   111.40   111.07   110.73   110.40   110.07   109.73   109.40   109.07   108.73   108.40   108.07   107.73   107.40   107.07   106.73   106.40   104.73   103.07   101.40    98.90    96.40    94.73    93.07    91.40    91.40    93.07    94.73    96.40    98.90   101.40   103.07   104.73   106.40   106.73   107.07   107.40   107.73   108.07   108.40   108.73   109.07   109.40   109.73   110.07   110.40   110.73   111.07   111.40   111.73   112.07   112.40   112.73   113.07   113.40   113.73   114.07   114.40   114.73   115.07
115.02   114.68   114.35   114.02   113.68   113.35   113.02   112.68   112.35   112.02   111.68   111.35   111.02   110.68   110.35   110.02   109.68   109.35   109.02   108.68   108.35   108.02   107.68   107.35   107.02   106.68   106.35   104.68   103.02   101.35    98.85    96.35    94.68    93.02    91.35    91.35    93.02    94.68    96.35    98.85   101.35   103.02   104.68   106.35   106.68   107.02   107.35   107.68   108.02   108.35   108.68   109.02   109.35   109.68   110.02   110.35   110.68   111.02   111.35   111.68   112.02   112.35   112.68   113.02   113.35   113.68   114.02   114.35   114.68   115.02
114.97   114.63   114.30   113.97   113.63   113.30   112.97   112.63   112.30   111.97   111.63   111.30   110.97   110.63   110.30   109.97   109.63   109.30   108.97   108.63   108.30   107.97   107.63   107.30   106.97   106.63   106.30   104.63   102.97   101.30    98.80    96.30    94.63    92.97    91.30    91.30    92.97    94.63    96.30    98.80   101.30   102.97   104.63   106.30   106.63   106.97   107.30   107.63   107.97   108.30   108.63   108.97   109.30   109.63   109.97   110.30   110.63   110.97   111.30   111.63   111.97   112.30   112.63   112.97   113.30   113.63   113.97   114.30   114.63   114.97
114.92   114.58   114.25   113.92   113.58   113.25   112.92   112.58   112.25   111.92   111.58   111.25   110.92   110.58   110.25   109.92   109.58   109.25   108.92   108.58   108.25   107.92   107.58   107.25   106.92   106.58   106.25   104.58   102.92   101.25    98.75    96.25    94.58    92.92    91.25    91.25    92.92    94.58    96.25    98.75   101.25   102.92   104.58   106.25   106.58   106.92   107.25   107.58   107.92   108.25   108.58   108.92   109.25   109.58   109.92   110.25   110.58   110.92   111.25   111.58   111.92   112.25   112.58   112.92   113.25   113.58   113.92   114.25   114.58   114.92
114.87   114.53   114.20   113.87   113.53   113.20   112.87   112.53   112.20   111.87   111.53   111.20   110.87   110.53   110.20   109.87   109.53   109.20   108.87   108.53   108.20   107.87   107.53   107.20   106.87   106.53   106.20   104.53   102.87   101.20    98.70    96.20    94.53    92.87    91.20    91.20    92.87    94.53    96.20    98.70   101.20   102.87   104.53   106.20   106.53   106.87   107.20   107.53   107.87   108.20   108.53   108.87   109.20   109.53   109.87   110.20   110.53   110.87   111.20   111.53   111.87   112.20   112.53   112.87   113.20   113.53   113.87   114.20   114.53   114.87
114.82   114.48   114.15   113.82   113.48   113.15   112.82   112.48   112.15   111.82   111.48   111.15   110.82   110.48   110.15   109.82   109.48   109.15   108.82   108.48   108.15   107.82   107.48   107.15   106.82   106.48   106.15   104.48   102.82   101.15    98.65    96.15    94.48    92.82    91.15    91.15    92.82    94.48    96.15    98.65   101.15   102.82   104.48   106.15   106.48   106.82   107.15   107.48   107.82   108.15   108.48   108.82   109.15   109.48   109.82   110.15   110.48   110.82   111.15   111.48   111.82   112.15   112.48   112.82   113.15   113.48   113.82   114.15   114.48   114.82
114.77   114.43   114.10   113.77   113.43   113.10   112.77   112.43   112.10   111.77   111.43   111.10   110.77   110.43   110.10   109.77   109.43   109.10   108.77   108.43   108.10   107.77   107.43   107.10   106.77   106.43   106.10   104.43   102.77   101.10    98.60    96.10    94.43    92.77    91.10    91.10    92.77    94.43    96.10    98.60   101.10   102.77   104.43   106.10   106.43   106.77   107.10   107.43   107.77   108.10   108.43   108.77   109.10   109.43   109.77   110.10   110.43   110.77   111.10   111.43   111.77   112.10   112.43   112.77   113.10   113.43   113.77   114.10   114.43   114.77
114.72   114.38   114.05   113.72   113.38   113.05   112.72   112.38   112.05   111.72   111.38   111.05   110.72   110.38   110.05   109.72   109.38   109.05   108.72   108.38   108.05   107.72   107.38   107.05   106.72   106.38   106.05   104.38   102.72   101.05    98.55    96.05    94.38    92.72    91.05    91.05    92.72    94.38    96.05    98.55   101.05   102.72   104.38   106.05   106.38   106.72   107.05   107.38   107.72   108.05   108.38   108.72   109.05   109.38   109.72   110.05   110.38   110.72   111.05   111.38   111.72   112.05   112.38   112.72   113.05   113.38   113.72   114.05   114.38   114.72
114.67   114.33   114.00   113.67   113.33   113.00   112.67   112.33   112.00   111.67   111.33   111.00   110.67   110.33   110.00   109.67   109.33   109.00   108.67   108.33   108.00   107.67   107.33   107.00   106.67   106.33   106.00   104.33   102.67   101.00    98.50    96.00    94.33    92.67    91.00    91.00    92.67    94.33    96.00    98.50   101.00   102.67   104.33   106.00   106.33   106.67   107.00   107.33   107.67   108.00   108.33   108.67   109.00   109.33   109.67   110.00   110.33   110.67   111.00   111.33   111.67   112.00   112.33   112.67   113.00   113.33   113.67   114.00   114.33   114.67
114.62   114.28   113.95   113.62   113.28   112.95   112.62   112.28   111.95   111.62   111.28   110.95   110.62   110.28   109.95   109.62   109.28   108.95   108.62   108.28   107.95   107.62   107.28   106.95   106.62   106.28   105.95   104.28   102.62   100.95    98.45    95.95    94.28    92.62    90.95    90.95    92.62    94.28    95.95    98.45   100.95   102.62   104.28   105.95   106.28   106.62   106.95   107.28   107.62   107.95   108.28   108.62   108.95   109.28   109.62   109.95   110.28   110.62   110.95   111.28   111.62   111.95   112.28   112.62   112.95   113.28   113.62   113.95   114.28   114.62
114.57   114.23   113.90   113.57   113.23   112.90   112.57   112.23   111.90   111.57   111.23   110.90   110.57   110.23   109.90   109.57   109.23   108.90   108.57   108.23   107.90   107.57   107.23   106.90   106.57   106.23   105.90   104.23   102.57   100.90    98.40    95.90    94.23    92.57    90.90    90.90    92.57    94.23    95.90    98.40   100.90   102.57   104.23   105.90   106.23   106.57   106.90   107.23   107.57   107.90   108.23   108.57   108.90   109.23   109.57   109.90   110.23   110.57   110.90   111.23   111.57   111.90   112.23   112.57   112.90   113.23   113.57   113.90   114.23   114.57
114.52   114.18   113.85   113.52   113.18   112.85   112.52   112.18   111.85   111.52   111.18   110.85   110.52   110.18   109.85   109.52   109.18   108.85   108.52   108.18   107.85   107.52   107.18   106.85   106.52   106.18   105.85   104.18   102.52   100.85    98.35    95.85    94.18    92.52    90.85    90.85    92.52    94.18    95.85    98.35   100.85   102.52   104.18   105.85   106.18   106.52   106.85   107.18   107.52   107.85   108.18   108.52   108.85   109.18   109.52   109.85   110.18   110.52   110.85   111.18   111.52   111.85   112.18   112.52   112.85   113.18   113.52   113.85   114.18   114.52
114.47   114.13   113.80   113.47   113.13   112.80   112.47   112.13   111.80   111.47   111.13   110.80   110.47   110.13   109.80   109.47   109.13   108.80   108.47   108.13   107.80   107.47   107.13   106.80   106.47   106.13   105.80   104.13   102.47   100.80    98.30    95.80    94.13    92.47    90.80    90.80    92.47    94.13    95.80    98.30   100.80   102.47   104.13   105.80   106.13   106.47   106.80   107.13   107.47   107.80   108.13   108.47   108.80   109.13   109.47   109.80   110.13   110.47   110.80   111.13   111.47   111.80   112.13   112.47   112.80   113.13   113.47   113.80   114.13   114.47
114.42   114.08   113.75   113.42   113.08   112.75   112.42   112.08   111.75   111.42   111.08   110.75   110.42   110.08   109.75   109.42   109.08   108.75   108.42   108.08   107.75   107.42   107.08   106.75   106.42   106.08   105.75   104.08   102.42   100.75    98.25    95.75    94.08    92.42    90.75    90.75    92.42    94.08    95.75    98.25   100.75   102.42   104.08   105.75   106.08   106.42   106.75   107.08   107.42   107.75   108.08   108.42   108.75   109.08   109.42   109.75   110.08   110.42   110.75   111.08   111.42   111.75   112.08   112.42   112.75   113.08   113.42   113.75   114.08   114.42
114.37   114.03   113.70   113.37   113.03   112.70   112.37   112.03   111.70   111.37   111.03   110.70   110.37   110.03   109.70   109.37   109.03   108.70   108.37   108.03   107.70   107.37   107.03   106.70   106.37   106.03   105.70   104.03   102.37   100.70    98.20    95.70    94.03    92.37    90.70    90.70    92.37    94.03    95.70    98.20   100.70   102.37   104.03   105.70   106.03   106.37   106.70   107.03   107.37   107.70   108.03   108.37   108.70   109.03   109.37   109.70   110.03   110.37   110.70   111.03   111.37   111.70   112.03   112.37   112.70   113.03   113.37   113.70   114.03   114.37
114.32   113.98   113.65   113.32   112.98   112.65   112.32   111.98   111.65   111.32   110.98   110.65   110.32   109.98   109.65   109.32   108.98   108.65   108.32   107.98   107.65   107.32   106.98   106.65   106.32   105.98   105.65   103.98   102.32   100.65    98.15    95.65    93.98    92.32    90.65    90.65    92.32    93.98    95.65    98.15   100.65   102.32   103.98   105.65   105.98   106.32   106.65   106.98   107.32   107.65   107.98   108.32   108.65   108.98   109.32   109.65   109.98   110.32   110.65   110.98   111.32   111.65   111.98   112.32   112.65   112.98   113.32   113.65   113.98   114.32
114.27   113.93   113.60   113.27   112.93   112.60   112.27   111.93   111.60   111.27   110.93   110.60   110.27   109.93   109.60   109.27   108.93   108.60   108.27   107.93   107.60   107.27   106.93   106.60   106.27   105.93   105.60   103.93   102.27   100.60    98.10    95.60    93.93    92.27    90.60    90.60    92.27    93.93    95.60    98.10   100.60   102.27   103.93   105.60   105.93   106.27   106.60   106.93   107.27   107.60   107.93   108.27   108.60   108.93   109.27   109.60   109.93   110.27   110.60   110.93   111.27   111.60   111.93   112.27   112.60   112.93   113.27   113.60   113.93   114.27
114.22   113.88   113.55   113.22   112.88   112.55   112.22   111.88   111.55   111.22   110.88   110.55   110.22   109.88   109.55   109.22   108.88   108.55   108.22   107.88   107.55   107.22   106.88   106.55   106.22   105.88   105.55   103.88   102.22   100.55    98.05    95.55    93.88    92.22    90.55    90.55    92.22    93.88    95.55    98.05   100.55   102.22   103.88   105.55   105.88   106.22   106.55   106.88   107.22   107.55   107.88   108.22   108.55   108.88   109.22   109.55   109.88   110.22   110.55   110.88   111.22   111.55   111.88   112.22   112.55   112.88   113.22   113.55   113.88   114.22
114.17   113.83   113.50   113.17   112.83   112.50   112.17   111.83   111.50   111.17   110.83   110.50   110.17   109.83   109.50   109.17   108.83   108.50   108.17   107.83   107.50   107.17   106.83   106.50   106.17   105.83   105.50   103.83   102.17   100.50    98.00    95.50    93.83    92.17    90.50    90.50    92.17    93.83    95.50    98.00   100.50   102.17   103.83   105.50   105.83   106.17   106.50   106.83   107.17   107.50   107.83   108.17   108.50   108.83   109.17   109.50   109.83   110.17   110.50   110.83   111.17   111.50   111.83   112.17   112.50   112.83   113.17   113.50   113.83   114.17
114.12   113.78   113.45   113.12   112.78   112.45   112.12   111.78   111.45   111.12   110.78   110.45   110.12   109.78   109.45   109.12   108.78   108.45   108.12   107.78   107.45   107.12   106.78   106.45   106.12   105.78   105.45   103.78   102.12   100.45    97.95    95.45    93.78    92.12    90.45    90.45    92.12    93.78    95.45    97.95   100.45   102.12   103.78   105.45   105.78   106.12   106.45   106.78   107.12   107.45   107.78   108.12   108.45   108.78   109.12   109.45   109.78   110.12   110.45   110.78   111.12   111.45   111.78   112.12   112.45   112.78   113.12   113.45   113.78   114.12
114.07   113.73   113.40   113.07   112.73   112.40   112.07   111.73   111.40   111.07   110.73   110.40   110.07   109.73   109.40   109.07   108.73   108.40   108.07   107.73   107.40   107.07   106.73   106.40   106.07   105.73   105.40   103.73   102.07   100.40    97.90    95.40    93.73    92.07    90.40    90.40    92.07    93.73    95.40    97.90   100.40   102.07   103.73   105.40   105.73   106.07   106.40   106.73   107.07   107.40   107.73   108.07   108.40   108.73   109.07   109.40   109.73   110.07   110.40   110.73   111.07   111.40   111.73   112.07   112.40   112.73   113.07   113.40   113.73   114.07
114.02   113.68   113.35   113.02   112.68   112.35   112.02   111.68   111.35   111.02   110.68   110.35   110.02   109.68   109.35   109.02   108.68   108.35   108.02   107.68   107.35   107.02   106.68   106.35   106.02   105.68   105.35   103.68   102.02   100.35    97.85    95.35    93.68    92.02    90.35    90.35    92.02    93.68    95.35    97.85   100.35   102.02   103.68   105.35   105.68   106.02   106.35   106.68   107.02   107.35   107.68   108.02   108.35   108.68   109.02   109.35   109.68   110.02   110.35   110.68   111.02   111.35   111.68   112.02   112.35   112.68   113.02   113.35   113.68   114.02
113.97   113.63   113.30   112.97   112.63   112.30   111.97   111.63   111.30   110.97   110.63   110.30   109.97   109.63   109.30   108.97   108.63   108.30   107.97   107.63   107.30   106.97   106.63   106.30   105.97   105.63   105.30   103.63   101.97   100.30    97.80    95.30    93.63    91.97    90.30    90.30    91.97    93.63    95.30    97.80   100.30   101.97   103.63   105.30   105.63   105.97   106.30   106.63   106.97   107.30   107.63   107.97   108.30   108.63   108.97   109.30   109.63   109.97   110.30   110.63   110.97   111.30   111.63   111.97   112.30   112.63   112.97   113.30   113.63   113.97
113.92   113.58   113.25   112.92   112.58   112.25   111.92   111.58   111.25   110.92   110.58   110.25   109.92   109.58   109.25   108.92   108.58   108.25   107.92   107.58   107.25   106.92   106.58   106.25   105.92   105.58   105.25   103.58   101.92   100.25    97.75    95.25    93.58    91.92    90.25    90.25    91.92    93.58    95.25    97.75   100.25   101.92   103.58   105.25   105.58   105.92   106.25   106.58   106.92   107.25   107.58   107.92   108.25   108.58   108.92   109.25   109.58   109.92   110.25   110.58   110.92   111.25   111.58   111.92   112.25   112.58   112.92   113.25   113.58   113.92
113.87   113.53   113.20   112.87   112.53   112.20   111.87   111.53   111.20   110.87   110.53   110.20   109.87   109.53   109.20   108.87   108.53   108.20   107.87   107.53   107.20   106.87   106.53   106.20   105.87   105.53   105.20   103.53   101.87   100.20    97.70    95.20    93.53    91.87    90.20    90.20    91.87    93.53    95.20    97.70   100.20   101.87   103.53   105.20   105.53   105.87   106.20   106.53   106.87   107.20   107.53   107.87   108.20   108.53   108.87   109.20   109.53   109.87   110.20   110.53   110.87   111.20   111.53   111.87   112.20   112.53   112.87   113.20   113.53   113.87
113.82   113.48   113.15   112.82   112.48   112.15   111.82   111.48   111.15   110.82   110.48   110.15   109.82   109.48   109.15   108.82   108.48   108.15   107.82   107.48   107.15   106.82   106.48   106.15   105.82   105.48   105.15   103.48   101.82   100.15    97.65    95.15    93.48    91.82    90.15    90.15    91.82    93.48    95.15    97.65   100.15   101.82   103.48   105.15   105.48   105.82   106.15   106.48   106.82   107.15   107.48   107.82   108.15   108.48   108.82   109.15   109.48   109.82   110.15   110.48   110.82   111.15   111.48   111.82   112.15   112.48   112.82   113.15   113.48   113.82
